ply
format ascii 1.0
comment Created by Open3D
element vertex 3097
property double x
property double y
property double z
end_header
110 115 -1.60093
111 115 -1.60093
112 115 -1.60093
113 115 -1.60093
114 115 -1.60093
115 115 -1.60093
116 115 -1.60093
117 115 -1.60093
118 115 -1.60093
119 115 -1.60093
0 116 -1.60093
1 116 -1.60093
2 116 -1.60093
3 116 -1.60093
4 116 -1.60093
5 116 -1.60093
6 116 -1.60093
7 116 -1.60093
8 116 -1.60093
9 116 -1.60093
10 116 -1.60093
11 116 -1.60093
12 116 -1.60093
13 116 -1.60093
14 116 -1.60093
15 116 -1.60093
16 116 -1.60093
17 116 -1.60093
18 116 -1.60093
19 116 -1.60093
20 116 -1.60093
21 116 -1.60093
22 116 -1.60093
23 116 -1.60093
24 116 -1.60093
25 116 -1.60093
26 116 -1.60093
27 116 -1.60093
28 116 -1.60093
29 116 -1.60093
30 116 -1.60093
31 116 -1.60093
32 116 -1.60093
33 116 -1.60093
34 116 -1.60093
35 116 -1.60093
36 116 1.35261
37 116 3.98658
38 116 6.55022
39 116 8.80988
40 116 10.9266
41 116 12.9682
42 116 14.7839
43 116 16.2289
44 116 17.3066
45 116 18.1987
46 116 18.9491
47 116 19.4534
48 116 19.7528
49 116 19.9313
50 116 19.9557
51 116 19.8145
52 116 19.6402
53 116 19.5001
54 116 19.3344
55 116 19.109
56 116 18.8826
57 116 18.7528
58 116 18.6447
59 116 18.4431
60 116 18.2266
61 116 18.1939
62 116 18.3096
63 116 18.4208
64 116 18.4531
65 116 18.4946
66 116 18.5583
67 116 18.5767
68 116 18.5003
69 116 18.3923
70 116 18.342
71 116 18.2988
72 116 18.1774
73 116 17.9979
74 116 17.8475
75 116 17.7297
76 116 17.5716
77 116 17.3351
78 116 16.9622
79 116 16.4679
80 116 15.934
81 116 15.3692
82 116 14.7178
83 116 13.9278
84 116 13.0781
85 116 12.2441
86 116 11.3434
87 116 10.3298
88 116 9.20658
89 116 7.98571
90 116 6.61252
91 116 4.95131
92 116 2.83196
93 116 -1.60093
94 116 -1.60093
95 116 -1.60093
96 116 -1.60093
97 116 -1.60093
98 116 -1.60093
99 116 -1.60093
100 116 -1.60093
101 116 -1.60093
102 116 -1.60093
103 116 -1.60093
104 116 -1.60093
105 116 -1.60093
106 116 -1.60093
107 116 -1.60093
108 116 -1.60093
109 116 -1.60093
110 116 -1.60093
111 116 -1.60093
112 116 -1.60093
113 116 -1.60093
114 116 -1.60093
115 116 -1.60093
116 116 -1.60093
117 116 -1.60093
118 116 -1.60093
119 116 -1.60093
0 117 -1.60093
1 117 -1.60093
2 117 -1.60093
3 117 -1.60093
4 117 -1.60093
5 117 -1.60093
6 117 -1.60093
7 117 -1.60093
8 117 -1.60093
9 117 -1.60093
10 117 -1.60093
11 117 -1.60093
12 117 -1.60093
13 117 -1.60093
14 117 -1.60093
15 117 -1.60093
16 117 -1.60093
17 117 -1.60093
18 117 -1.60093
19 117 -1.60093
20 117 -1.60093
21 117 -1.60093
22 117 -1.60093
23 117 -1.60093
24 117 -1.60093
25 117 -1.60093
26 117 -1.60093
27 117 -1.60093
28 117 -1.60093
29 117 -1.60093
30 117 -1.60093
31 117 -1.60093
32 117 -1.60093
33 117 -1.60093
34 117 -1.60093
35 117 -1.60093
36 117 2.08316
37 117 4.77487
38 117 7.3687
39 117 9.69942
40 117 11.9299
41 117 14.0448
42 117 15.885
43 117 17.283
44 117 18.352
45 117 19.2257
46 117 19.8995
47 117 20.3519
48 117 20.5706
49 117 20.6097
50 117 20.5273
51 117 20.301
52 117 20.0694
53 117 19.9029
54 117 19.7817
55 117 19.5374
56 117 19.238
57 117 19.037
58 117 18.8421
59 117 18.5594
60 117 18.3438
61 117 18.3313
62 117 18.4137
63 117 18.4638
64 117 18.4509
65 117 18.4565
66 117 18.492
67 117 18.497
68 117 18.3915
69 117 18.2723
70 117 18.2239
71 117 18.2232
72 117 18.1328
73 117 17.9827
74 117 17.8476
75 117 17.7452
76 117 17.6003
77 117 17.3292
78 117 16.9347
79 117 16.4432
80 117 15.8961
81 117 15.291
82 117 14.6113
83 117 13.8581
84 117 13.1099
85 117 12.3218
86 117 11.4616
87 117 10.526
88 117 9.53837
89 117 8.42074
90 117 7.06062
91 117 5.45471
92 117 3.59743
93 117 1.55098
94 117 -1.60093
95 117 -1.60093
96 117 -1.60093
97 117 -1.60093
98 117 -1.60093
99 117 -1.60093
100 117 -1.60093
101 117 -1.60093
102 117 -1.60093
103 117 -1.60093
104 117 -1.60093
105 117 -1.60093
106 117 -1.60093
107 117 -1.60093
108 117 -1.60093
109 117 -1.60093
110 117 -1.60093
111 117 -1.60093
112 117 -1.60093
113 117 -1.60093
114 117 -1.60093
115 117 -1.60093
116 117 -1.60093
117 117 -1.60093
118 117 -1.60093
119 117 -1.60093
0 118 -1.60093
1 118 -1.60093
2 118 -1.60093
3 118 -1.60093
4 118 -1.60093
5 118 -1.60093
6 118 -1.60093
7 118 -1.60093
8 118 -1.60093
9 118 -1.60093
10 118 -1.60093
11 118 -1.60093
12 118 -1.60093
13 118 -1.60093
14 118 -1.60093
15 118 -1.60093
16 118 -1.60093
17 118 -1.60093
18 118 -1.60093
19 118 -1.60093
20 118 -1.60093
21 118 -1.60093
22 118 -1.60093
23 118 -1.60093
24 118 -1.60093
25 118 -1.60093
26 118 -1.60093
27 118 -1.60093
28 118 -1.60093
29 118 -1.60093
30 118 -1.60093
31 118 -1.60093
32 118 -1.60093
33 118 -1.60093
34 118 -1.60093
35 118 -1.60093
36 118 2.80444
37 118 5.62132
38 118 8.2374
39 118 10.6126
40 118 12.8683
41 118 14.9963
42 118 16.8032
43 118 18.1534
44 118 19.1814
45 118 19.9923
46 118 20.634
47 118 21.0644
48 118 21.2944
49 118 21.3163
50 118 21.1481
51 118 20.8734
52 118 20.6017
53 118 20.4179
54 118 20.2773
55 118 20.0528
56 118 19.7417
57 118 19.4697
58 118 19.2168
59 118 18.928
60 118 18.7212
61 118 18.6198
62 118 18.5489
63 118 18.4884
64 118 18.4506
65 118 18.4366
66 118 18.4293
67 118 18.3805
68 118 18.2813
69 118 18.1857
70 118 18.1711
71 118 18.1888
72 118 18.1271
73 118 17.9921
74 118 17.8618
75 118 17.7576
76 118 17.5979
77 118 17.3263
78 118 16.9652
79 118 16.532
80 118 15.9896
81 118 15.3351
82 118 14.6214
83 118 13.879
84 118 13.1736
85 118 12.4292
86 118 11.6129
87 118 10.7535
88 118 9.84596
89 118 8.76998
90 118 7.40167
91 118 5.75057
92 118 3.91419
93 118 1.89592
94 118 -1.60093
95 118 -1.60093
96 118 -1.60093
97 118 -1.60093
98 118 -1.60093
99 118 -1.60093
100 118 -1.60093
101 118 -1.60093
102 118 -1.60093
103 118 -1.60093
104 118 -1.60093
105 118 -1.60093
106 118 -1.60093
107 118 -1.60093
108 118 -1.60093
109 118 -1.60093
110 118 -1.60093
111 118 -1.60093
112 118 -1.60093
113 118 -1.60093
114 118 -1.60093
115 118 -1.60093
116 118 -1.60093
117 118 -1.60093
118 118 -1.60093
119 118 -1.60093
0 119 -1.60093
1 119 -1.60093
2 119 -1.60093
3 119 -1.60093
4 119 -1.60093
5 119 -1.60093
6 119 -1.60093
7 119 -1.60093
8 119 -1.60093
9 119 -1.60093
10 119 -1.60093
11 119 -1.60093
12 119 -1.60093
13 119 -1.60093
14 119 -1.60093
15 119 -1.60093
16 119 -1.60093
17 119 -1.60093
18 119 -1.60093
19 119 -1.60093
20 119 -1.60093
21 119 -1.60093
22 119 -1.60093
23 119 -1.60093
24 119 -1.60093
25 119 -1.60093
26 119 -1.60093
27 119 -1.60093
28 119 -1.60093
29 119 -1.60093
30 119 -1.60093
31 119 -1.60093
32 119 -1.60093
33 119 -1.60093
34 119 -1.60093
35 119 -1.60093
36 119 3.67994
37 119 6.74549
38 119 9.40116
39 119 11.7893
40 119 13.9764
41 119 15.9162
42 119 17.5476
43 119 18.7747
44 119 19.7275
45 119 20.5133
46 119 21.188
47 119 21.6946
48 119 21.9775
49 119 21.984
50 119 21.8021
51 119 21.4985
52 119 21.2294
53 119 21.0056
54 119 20.778
55 119 20.5222
56 119 20.2415
57 119 19.9674
58 119 19.6765
59 119 19.3742
60 119 19.1395
61 119 18.9374
62 119 18.7375
63 119 18.5792
64 119 18.486
65 119 18.4403
66 119 18.3718
67 119 18.2791
68 119 18.2028
69 119 18.1618
70 119 18.176
71 119 18.2057
72 119 18.1556
73 119 18.0318
74 119 17.8965
75 119 17.7587
76 119 17.556
77 119 17.2865
78 119 16.9806
79 119 16.5831
80 119 16.0387
81 119 15.3981
82 119 14.711
83 119 13.994
84 119 13.2656
85 119 12.551
86 119 11.798
87 119 10.9706
88 119 10.0909
89 119 9.06756
90 119 7.71463
91 119 6.02091
92 119 4.03949
93 119 1.90539
94 119 -1.60093
95 119 -1.60093
96 119 -1.60093
97 119 -1.60093
98 119 -1.60093
99 119 -1.60093
100 119 -1.60093
101 119 -1.60093
102 119 -1.60093
103 119 -1.60093
104 119 -1.60093
105 119 -1.60093
106 119 -1.60093
107 119 -1.60093
108 119 -1.60093
109 119 -1.60093
110 119 -1.60093
111 119 -1.60093
112 119 -1.60093
113 119 -1.60093
114 119 -1.60093
115 119 -1.60093
116 119 -1.60093
117 119 -1.60093
118 119 -1.60093
119 119 -1.60093
0 120 -1.60093
1 120 -1.60093
2 120 -1.60093
3 120 -1.60093
4 120 -1.60093
5 120 -1.60093
6 120 -1.60093
7 120 -1.60093
8 120 -1.60093
9 120 -1.60093
10 120 -1.60093
11 120 -1.60093
12 120 -1.60093
13 120 -1.60093
14 120 -1.60093
15 120 -1.60093
16 120 -1.60093
17 120 -1.60093
18 120 -1.60093
19 120 -1.60093
20 120 -1.60093
21 120 -1.60093
22 120 -1.60093
23 120 -1.60093
24 120 -1.60093
25 120 -1.60093
26 120 -1.60093
27 120 -1.60093
28 120 -1.60093
29 120 -1.60093
30 120 -1.60093
31 120 -1.60093
32 120 -1.60093
33 120 -1.60093
34 120 -1.60093
35 120 2.01334
36 120 5.01839
37 120 8.01526
38 120 10.8506
39 120 13.3375
40 120 15.35
41 120 16.9593
42 120 18.308
43 120 19.3742
44 120 20.2272
45 120 21.0036
46 120 21.7224
47 120 22.2842
48 120 22.5571
49 120 22.5542
50 120 22.3908
51 120 22.1358
52 120 21.8713
53 120 21.5743
54 120 21.2494
55 120 20.9292
56 120 20.6904
57 120 20.4512
58 120 20.1266
59 120 19.7788
60 120 19.4756
61 120 19.1846
62 120 18.9127
63 120 18.7225
64 120 18.5712
65 120 18.4307
66 120 18.3299
67 120 18.2195
68 120 18.1355
69 120 18.1183
70 120 18.1809
71 120 18.2325
72 120 18.1921
73 120 18.0414
74 120 17.8781
75 120 17.7239
76 120 17.5291
77 120 17.2691
78 120 16.9865
79 120 16.5841
80 120 16.0484
81 120 15.4529
82 120 14.8707
83 120 14.2073
84 120 13.4802
85 120 12.7754
86 120 12.0313
87 120 11.2338
88 120 10.3652
89 120 9.3787
90 120 8.08176
91 120 6.36465
92 120 4.22144
93 120 1.99369
94 120 -1.60093
95 120 -1.60093
96 120 -1.60093
97 120 -1.60093
98 120 -1.60093
99 120 -1.60093
100 120 -1.60093
101 120 -1.60093
102 120 -1.60093
103 120 -1.60093
104 120 -1.60093
105 120 -1.60093
106 120 -1.60093
107 120 -1.60093
108 120 -1.60093
109 120 -1.60093
110 120 -1.60093
111 120 -1.60093
112 120 -1.60093
113 120 -1.60093
114 120 -1.60093
115 120 -1.60093
116 120 -1.60093
117 120 -1.60093
118 120 -1.60093
119 120 -1.60093
0 121 -1.60093
1 121 -1.60093
2 121 -1.60093
3 121 -1.60093
4 121 -1.60093
5 121 -1.60093
6 121 -1.60093
7 121 -1.60093
8 121 -1.60093
9 121 -1.60093
10 121 -1.60093
11 121 -1.60093
12 121 -1.60093
13 121 -1.60093
14 121 -1.60093
15 121 -1.60093
16 121 -1.60093
17 121 -1.60093
18 121 -1.60093
19 121 -1.60093
20 121 -1.60093
21 121 -1.60093
22 121 -1.60093
23 121 -1.60093
24 121 -1.60093
25 121 -1.60093
26 121 -1.60093
27 121 -1.60093
28 121 -1.60093
29 121 -1.60093
30 121 -1.60093
31 121 -1.60093
32 121 -1.60093
33 121 -1.60093
34 121 -1.60093
35 121 2.93538
36 121 6.05448
37 121 9.21832
38 121 12.3979
39 121 15.0005
40 121 16.8141
41 121 18.1236
42 121 19.2282
43 121 20.1845
44 121 20.9908
45 121 21.7178
46 121 22.3728
47 121 22.8526
48 121 23.0948
49 121 23.0746
50 121 22.9055
51 121 22.6768
52 121 22.4256
53 121 22.0983
54 121 21.6935
55 121 21.349
56 121 21.114
57 121 20.8699
58 121 20.5033
59 121 20.1103
60 121 19.7684
61 121 19.4461
62 121 19.1393
63 121 18.8903
64 121 18.6651
65 121 18.4832
66 121 18.3515
67 121 18.2219
68 121 18.1108
69 121 18.1047
70 121 18.1946
71 121 18.2552
72 121 18.1915
73 121 18.0134
74 121 17.8382
75 121 17.7152
76 121 17.5726
77 121 17.3538
78 121 17.0668
79 121 16.661
80 121 16.1585
81 121 15.6342
82 121 15.1519
83 121 14.5904
84 121 13.8848
85 121 13.1348
86 121 12.3866
87 121 11.5985
88 121 10.7411
89 121 9.75347
90 121 8.47581
91 121 6.77971
92 121 4.56368
93 121 2.16213
94 121 -1.60093
95 121 -1.60093
96 121 -1.60093
97 121 -1.60093
98 121 -1.60093
99 121 -1.60093
100 121 -1.60093
101 121 -1.60093
102 121 -1.60093
103 121 -1.60093
104 121 -1.60093
105 121 -1.60093
106 121 -1.60093
107 121 -1.60093
108 121 -1.60093
109 121 -1.60093
110 121 -1.60093
111 121 -1.60093
112 121 -1.60093
113 121 -1.60093
114 121 -1.60093
115 121 -1.60093
116 121 -1.60093
117 121 -1.60093
118 121 -1.60093
119 121 -1.60093
0 122 -1.60093
1 122 -1.60093
2 122 -1.60093
3 122 -1.60093
4 122 -1.60093
5 122 -1.60093
6 122 -1.60093
7 122 -1.60093
8 122 -1.60093
9 122 -1.60093
10 122 -1.60093
11 122 -1.60093
12 122 -1.60093
13 122 -1.60093
14 122 -1.60093
15 122 -1.60093
16 122 -1.60093
17 122 -1.60093
18 122 -1.60093
19 122 -1.60093
20 122 -1.60093
21 122 -1.60093
22 122 -1.60093
23 122 -1.60093
24 122 -1.60093
25 122 -1.60093
26 122 -1.60093
27 122 -1.60093
28 122 -1.60093
29 122 -1.60093
30 122 -1.60093
31 122 -1.60093
32 122 -1.60093
33 122 -1.60093
34 122 -1.60093
35 122 3.5312
36 122 7.08234
37 122 10.6554
38 122 13.9907
39 122 16.4822
40 122 18.1329
41 122 19.3105
42 122 20.2901
43 122 21.1626
44 122 21.9083
45 122 22.5726
46 122 23.127
47 122 23.5166
48 122 23.7046
49 122 23.6723
50 122 23.4603
51 122 23.2038
52 122 22.9597
53 122 22.6059
54 122 22.169
55 122 21.7872
56 122 21.5029
57 122 21.1917
58 122 20.7904
59 122 20.3897
60 122 20.0534
61 122 19.7123
62 122 19.3606
63 122 19.039
64 122 18.7923
65 122 18.6395
66 122 18.5019
67 122 18.3526
68 122 18.2298
69 122 18.1952
70 122 18.2304
71 122 18.2492
72 122 18.1678
73 122 17.9944
74 122 17.8581
75 122 17.7932
76 122 17.7206
77 122 17.5312
78 122 17.2369
79 122 16.866
80 122 16.4327
81 122 16.0087
82 122 15.5924
83 122 15.0785
84 122 14.3704
85 122 13.6041
86 122 12.8567
87 122 12.0692
88 122 11.1826
89 122 10.1518
90 122 8.86163
91 122 7.16247
92 122 4.9316
93 122 2.38365
94 122 -1.60093
95 122 -1.60093
96 122 -1.60093
97 122 -1.60093
98 122 -1.60093
99 122 -1.60093
100 122 -1.60093
101 122 -1.60093
102 122 -1.60093
103 122 -1.60093
104 122 -1.60093
105 122 -1.60093
106 122 -1.60093
107 122 -1.60093
108 122 -1.60093
109 122 -1.60093
110 122 -1.60093
111 122 -1.60093
112 122 -1.60093
113 122 -1.60093
114 122 -1.60093
115 122 -1.60093
116 122 -1.60093
117 122 -1.60093
118 122 -1.60093
119 122 -1.60093
0 123 -1.60093
1 123 -1.60093
2 123 -1.60093
3 123 -1.60093
4 123 -1.60093
5 123 -1.60093
6 123 -1.60093
7 123 -1.60093
8 123 -1.60093
9 123 -1.60093
10 123 -1.60093
11 123 -1.60093
12 123 -1.60093
13 123 -1.60093
14 123 -1.60093
15 123 -1.60093
16 123 -1.60093
17 123 -1.60093
18 123 -1.60093
19 123 -1.60093
20 123 -1.60093
21 123 -1.60093
22 123 -1.60093
23 123 -1.60093
24 123 -1.60093
25 123 -1.60093
26 123 -1.60093
27 123 -1.60093
28 123 -1.60093
29 123 -1.60093
30 123 -1.60093
31 123 -1.60093
32 123 -1.60093
33 123 -1.60093
34 123 -1.60093
35 123 4.23397
36 123 8.59103
37 123 12.4759
38 123 15.5158
39 123 17.6696
40 123 19.1792
41 123 20.343
42 123 21.2915
43 123 22.0642
44 123 22.7456
45 123 23.3468
46 123 23.8559
47 123 24.1982
48 123 24.3543
49 123 24.3227
50 123 24.1174
51 123 23.8779
52 123 23.5875
53 123 23.1715
54 123 22.6863
55 123 22.2655
56 123 21.8999
57 123 21.4742
58 123 21.0243
59 123 20.6347
60 123 20.2977
61 123 19.9263
62 123 19.5251
63 123 19.1775
64 123 18.9709
65 123 18.8573
66 123 18.7326
67 123 18.6049
68 123 18.4824
69 123 18.3779
70 123 18.3034
71 123 18.2502
72 123 18.1607
73 123 18.051
74 123 17.9681
75 123 17.9405
76 123 17.8901
77 123 17.73
78 123 17.4766
79 123 17.1697
80 123 16.8104
81 123 16.4397
82 123 16.0355
83 123 15.4974
84 123 14.771
85 123 14.0177
86 123 13.2747
87 123 12.4799
88 123 11.5707
89 123 10.5191
90 123 9.19636
91 123 7.4093
92 123 5.05937
93 123 2.44715
94 123 -1.60093
95 123 -1.60093
96 123 -1.60093
97 123 -1.60093
98 123 -1.60093
99 123 -1.60093
100 123 -1.60093
101 123 -1.60093
102 123 -1.60093
103 123 -1.60093
104 123 -1.60093
105 123 -1.60093
106 123 -1.60093
107 123 -1.60093
108 123 -1.60093
109 123 -1.60093
110 123 -1.60093
111 123 -1.60093
112 123 -1.60093
113 123 -1.60093
114 123 -1.60093
115 123 -1.60093
116 123 -1.60093
117 123 -1.60093
118 123 -1.60093
119 123 -1.60093
0 124 -1.60093
1 124 -1.60093
2 124 -1.60093
3 124 -1.60093
4 124 -1.60093
5 124 -1.60093
6 124 -1.60093
7 124 -1.60093
8 124 -1.60093
9 124 -1.60093
10 124 -1.60093
11 124 -1.60093
12 124 -1.60093
13 124 -1.60093
14 124 -1.60093
15 124 -1.60093
16 124 -1.60093
17 124 -1.60093
18 124 -1.60093
19 124 -1.60093
20 124 -1.60093
21 124 -1.60093
22 124 -1.60093
23 124 -1.60093
24 124 -1.60093
25 124 -1.60093
26 124 -1.60093
27 124 -1.60093
28 124 -1.60093
29 124 -1.60093
30 124 -1.60093
31 124 -1.60093
32 124 -1.60093
33 124 -1.60093
34 124 -1.60093
35 124 5.63337
36 124 10.421
37 124 14.1468
38 124 16.7787
39 124 18.6183
40 124 20.0091
41 124 21.1256
42 124 22.0204
43 124 22.7379
44 124 23.334
45 124 23.8692
46 124 24.3502
47 124 24.7157
48 124 24.9106
49 124 24.9206
50 124 24.8
51 124 24.5795
52 124 24.2266
53 124 23.7316
54 124 23.2445
55 124 22.8057
56 124 22.3519
57 124 21.8356
58 124 21.3156
59 124 20.8973
60 124 20.518
61 124 20.1157
62 124 19.7037
63 124 19.3727
64 124 19.1821
65 124 19.0789
66 124 18.9702
67 124 18.8563
68 124 18.7595
69 124 18.6252
70 124 18.4739
71 124 18.3295
72 124 18.2053
73 124 18.1398
74 124 18.1157
75 124 18.1055
76 124 18.0598
77 124 17.9379
78 124 17.7613
79 124 17.5395
80 124 17.2395
81 124 16.8567
82 124 16.3923
83 124 15.7823
84 124 15.039
85 124 14.3165
86 124 13.5902
87 124 12.8144
88 124 11.9478
89 124 10.9385
90 124 9.60546
91 124 7.72162
92 124 5.2972
93 124 2.64138
94 124 -1.60093
95 124 -1.60093
96 124 -1.60093
97 124 -1.60093
98 124 -1.60093
99 124 -1.60093
100 124 -1.60093
101 124 -1.60093
102 124 -1.60093
103 124 -1.60093
104 124 -1.60093
105 124 -1.60093
106 124 -1.60093
107 124 -1.60093
108 124 -1.60093
109 124 -1.60093
110 124 -1.60093
111 124 -1.60093
112 124 -1.60093
113 124 -1.60093
114 124 -1.60093
115 124 -1.60093
116 124 -1.60093
117 124 -1.60093
118 124 -1.60093
119 124 -1.60093
0 125 -1.60093
1 125 -1.60093
2 125 -1.60093
3 125 -1.60093
4 125 -1.60093
5 125 -1.60093
6 125 -1.60093
7 125 -1.60093
8 125 -1.60093
9 125 -1.60093
10 125 -1.60093
11 125 -1.60093
12 125 -1.60093
13 125 -1.60093
14 125 -1.60093
15 125 -1.60093
16 125 -1.60093
17 125 -1.60093
18 125 -1.60093
19 125 -1.60093
20 125 -1.60093
21 125 -1.60093
22 125 -1.60093
23 125 -1.60093
24 125 -1.60093
25 125 -1.60093
26 125 -1.60093
27 125 -1.60093
28 125 -1.60093
29 125 -1.60093
30 125 -1.60093
31 125 -1.60093
32 125 -1.60093
33 125 -1.60093
34 125 3.68097
35 125 8.27224
36 125 12.3456
37 125 15.5117
38 125 17.7705
39 125 19.3698
40 125 20.6047
41 125 21.6127
42 125 22.4316
43 125 23.0921
44 125 23.668
45 125 24.1856
46 125 24.6612
47 125 25.0712
48 125 25.3147
49 125 25.3918
50 125 25.3613
51 125 25.1751
52 125 24.7627
53 125 24.2507
54 125 23.8058
55 125 23.3638
56 125 22.8666
57 125 22.3186
58 125 21.7712
59 125 21.2669
60 125 20.8029
61 125 20.3626
62 125 19.9707
63 125 19.6202
64 125 19.4
65 125 19.2618
66 125 19.1365
67 125 19.0437
68 125 18.9704
69 125 18.8632
70 125 18.6973
71 125 18.5123
72 125 18.3687
73 125 18.3171
74 125 18.327
75 125 18.331
76 125 18.2723
77 125 18.1895
78 125 18.1019
79 125 17.9451
80 125 17.6791
81 125 17.2805
82 125 16.7553
83 125 16.0921
84 125 15.3485
85 125 14.6325
86 125 13.9285
87 125 13.1817
88 125 12.3989
89 125 11.4478
90 125 10.1246
91 125 8.25746
92 125 5.76511
93 125 2.86448
94 125 -1.60093
95 125 -1.60093
96 125 -1.60093
97 125 -1.60093
98 125 -1.60093
99 125 -1.60093
100 125 -1.60093
101 125 -1.60093
102 125 -1.60093
103 125 -1.60093
104 125 -1.60093
105 125 -1.60093
106 125 -1.60093
107 125 -1.60093
108 125 -1.60093
109 125 -1.60093
110 125 -1.60093
111 125 -1.60093
112 125 -1.60093
113 125 -1.60093
114 125 -1.60093
115 125 -1.60093
116 125 -1.60093
117 125 -1.60093
118 125 -1.60093
119 125 -1.60093
0 126 -1.60093
1 126 -1.60093
2 126 -1.60093
3 126 -1.60093
4 126 -1.60093
5 126 -1.60093
6 126 -1.60093
7 126 -1.60093
8 126 -1.60093
9 126 -1.60093
10 126 -1.60093
11 126 -1.60093
12 126 -1.60093
13 126 -1.60093
14 126 -1.60093
15 126 -1.60093
16 126 -1.60093
17 126 -1.60093
18 126 -1.60093
19 126 -1.60093
20 126 -1.60093
21 126 -1.60093
22 126 -1.60093
23 126 -1.60093
24 126 -1.60093
25 126 -1.60093
26 126 -1.60093
27 126 -1.60093
28 126 -1.60093
29 126 -1.60093
30 126 -1.60093
31 126 -1.60093
32 126 -1.60093
33 126 2.54542
34 126 6.5965
35 126 10.656
36 126 13.9972
37 126 16.5548
38 126 18.4849
39 126 19.9024
40 126 20.9656
41 126 21.8382
42 126 22.5781
43 126 23.2241
44 126 23.8209
45 126 24.3818
46 126 24.8956
47 126 25.3063
48 126 25.559
49 126 25.6777
50 126 25.7065
51 126 25.5422
52 126 25.1671
53 126 24.7353
54 126 24.3283
55 126 23.8827
56 126 23.3773
57 126 22.8554
58 126 22.3022
59 126 21.7154
60 126 21.1355
61 126 20.6435
62 126 20.2327
63 126 19.8702
64 126 19.6119
65 126 19.4352
66 126 19.272
67 126 19.1771
68 126 19.1533
69 126 19.1065
70 126 18.9742
71 126 18.8083
72 126 18.6846
73 126 18.6447
74 126 18.674
75 126 18.689
76 126 18.6334
77 126 18.5415
78 126 18.4814
79 126 18.3882
80 126 18.1717
81 126 17.8036
82 126 17.282
83 126 16.6235
84 126 15.9157
85 126 15.1775
86 126 14.4463
87 126 13.7041
88 126 12.9377
89 126 12.0123
90 126 10.7138
91 126 8.88125
92 126 6.36572
93 126 3.27883
94 126 -1.60093
95 126 -1.60093
96 126 -1.60093
97 126 -1.60093
98 126 -1.60093
99 126 -1.60093
100 126 -1.60093
101 126 -1.60093
102 126 -1.60093
103 126 -1.60093
104 126 -1.60093
105 126 -1.60093
106 126 -1.60093
107 126 -1.60093
108 126 -1.60093
109 126 -1.60093
110 126 -1.60093
111 126 -1.60093
112 126 -1.60093
113 126 -1.60093
114 126 -1.60093
115 126 -1.60093
116 126 -1.60093
117 126 -1.60093
118 126 -1.60093
119 126 -1.60093
0 127 -1.60093
1 127 -1.60093
2 127 -1.60093
3 127 -1.60093
4 127 -1.60093
5 127 -1.60093
6 127 -1.60093
7 127 -1.60093
8 127 -1.60093
9 127 -1.60093
10 127 -1.60093
11 127 -1.60093
12 127 -1.60093
13 127 -1.60093
14 127 -1.60093
15 127 -1.60093
16 127 -1.60093
17 127 -1.60093
18 127 -1.60093
19 127 -1.60093
20 127 -1.60093
21 127 -1.60093
22 127 -1.60093
23 127 -1.60093
24 127 -1.60093
25 127 -1.60093
26 127 -1.60093
27 127 -1.60093
28 127 -1.60093
29 127 -1.60093
30 127 -1.60093
31 127 0.926615
32 127 2.18128
33 127 4.9802
34 127 8.83595
35 127 12.5356
36 127 15.3328
37 127 17.4151
38 127 19.0401
39 127 20.3015
40 127 21.2416
41 127 21.9849
42 127 22.6272
43 127 23.2104
44 127 23.8056
45 127 24.4032
46 127 24.96
47 127 25.3771
48 127 25.5875
49 127 25.6745
50 127 25.6974
51 127 25.5902
52 127 25.3701
53 127 25.1189
54 127 24.7826
55 127 24.3359
56 127 23.8375
57 127 23.3202
58 127 22.746
59 127 22.0953
60 127 21.4359
61 127 20.8698
62 127 20.4237
63 127 20.092
64 127 19.8666
65 127 19.682
66 127 19.5131
67 127 19.4372
68 127 19.4614
69 127 19.4467
70 127 19.3367
71 127 19.1794
72 127 19.077
73 127 19.0478
74 127 19.0959
75 127 19.1431
76 127 19.0949
77 127 18.9984
78 127 18.9272
79 127 18.8615
80 127 18.69
81 127 18.3735
82 127 17.8971
83 127 17.3351
84 127 16.6784
85 127 15.9493
86 127 15.1809
87 127 14.3685
88 127 13.5235
89 127 12.5472
90 127 11.2885
91 127 9.52883
92 127 7.08458
93 127 3.84735
94 127 -1.60093
95 127 -1.60093
96 127 -1.60093
97 127 -1.60093
98 127 -1.60093
99 127 -1.60093
100 127 -1.60093
101 127 -1.60093
102 127 -1.60093
103 127 -1.60093
104 127 -1.60093
105 127 -1.60093
106 127 -1.60093
107 127 -1.60093
108 127 -1.60093
109 127 -1.60093
110 127 -1.60093
111 127 -1.60093
112 127 -1.60093
113 127 -1.60093
114 127 -1.60093
115 127 -1.60093
116 127 -1.60093
117 127 -1.60093
118 127 -1.60093
119 127 -1.60093
0 128 -1.60093
1 128 -1.60093
2 128 -1.60093
3 128 -1.60093
4 128 -1.60093
5 128 -1.60093
6 128 -1.60093
7 128 -1.60093
8 128 -1.60093
9 128 -1.60093
10 128 -1.60093
11 128 -1.60093
12 128 -1.60093
13 128 -1.60093
14 128 -1.60093
15 128 -1.60093
16 128 -1.60093
17 128 -1.60093
18 128 -1.60093
19 128 -1.60093
20 128 -1.60093
21 128 -1.60093
22 128 -1.60093
23 128 -1.60093
24 128 -1.60093
25 128 -1.60093
26 128 -1.60093
27 128 1.12071
28 128 1.66962
29 128 1.97778
30 128 2.36668
31 128 3.19278
32 128 4.69438
33 128 7.28605
34 128 10.6671
35 128 13.9118
36 128 16.3888
37 128 18.1691
38 128 19.5471
39 128 20.6632
40 128 21.5047
41 128 22.1288
42 128 22.652
43 128 23.1543
44 128 23.6933
45 128 24.2846
46 128 24.8558
47 128 25.2651
48 128 25.4292
49 128 25.4632
50 128 25.4544
51 128 25.4142
52 128 25.3765
53 128 25.278
54 128 25.031
55 128 24.6113
56 128 24.1341
57 128 23.6082
58 128 23.0069
59 128 22.347
60 128 21.6796
61 128 21.0784
62 128 20.631
63 128 20.3281
64 128 20.1419
65 128 19.9968
66 128 19.8736
67 128 19.855
68 128 19.9018
69 128 19.8771
70 128 19.7588
71 128 19.5876
72 128 19.4415
73 128 19.4042
74 128 19.465
75 128 19.5305
76 128 19.5312
77 128 19.4826
78 128 19.411
79 128 19.3025
80 128 19.1392
81 128 18.8482
82 128 18.4585
83 128 17.9966
84 128 17.4375
85 128 16.7471
86 128 15.9423
87 128 15.0013
88 128 14.0027
89 128 12.9641
90 128 11.7673
91 128 10.1748
92 128 7.88467
93 128 4.50436
94 128 -1.60093
95 128 -1.60093
96 128 -1.60093
97 128 -1.60093
98 128 -1.60093
99 128 -1.60093
100 128 -1.60093
101 128 -1.60093
102 128 -1.60093
103 128 -1.60093
104 128 -1.60093
105 128 -1.60093
106 128 -1.60093
107 128 -1.60093
108 128 -1.60093
109 128 -1.60093
110 128 -1.60093
111 128 -1.60093
112 128 -1.60093
113 128 -1.60093
114 128 -1.60093
115 128 -1.60093
116 128 -1.60093
117 128 -1.60093
118 128 -1.60093
119 128 -1.60093
0 129 -1.60093
1 129 -1.60093
2 129 -1.60093
3 129 -1.60093
4 129 -1.60093
5 129 -1.60093
6 129 -1.60093
7 129 -1.60093
8 129 -1.60093
9 129 -1.60093
10 129 -1.60093
11 129 -1.60093
12 129 -1.60093
13 129 -1.60093
14 129 -1.60093
15 129 -1.60093
16 129 -1.60093
17 129 -1.60093
18 129 -1.60093
19 129 -1.60093
20 129 -1.60093
21 129 -1.60093
22 129 -1.60093
23 129 -1.60093
24 129 -1.60093
25 129 -1.60093
26 129 1.58843
27 129 2.61581
28 129 3.32888
29 129 3.84271
30 129 4.34966
31 129 5.15878
32 129 6.70006
33 129 9.12766
34 129 12.0926
35 129 14.9056
36 129 17.1066
37 129 18.7078
38 129 19.9753
39 129 20.9904
40 129 21.7331
41 129 22.2487
42 129 22.6565
43 129 23.0854
44 129 23.5793
45 129 24.1258
46 129 24.6491
47 129 25.0008
48 129 25.1713
49 129 25.2329
50 129 25.2541
51 129 25.265
52 129 25.2942
53 129 25.225
54 129 24.9857
55 129 24.6087
56 129 24.1816
57 129 23.6991
58 129 23.1213
59 129 22.4944
60 129 21.8765
61 129 21.3133
62 129 20.8701
63 129 20.5842
64 129 20.3994
65 129 20.2707
66 129 20.2037
67 129 20.2441
68 129 20.2943
69 129 20.251
70 129 20.1058
71 129 19.9106
72 129 19.7532
73 129 19.7214
74 129 19.8083
75 129 19.8813
76 129 19.9212
77 129 19.9263
78 129 19.8532
79 129 19.7092
80 129 19.5237
81 129 19.2791
82 129 18.981
83 129 18.6238
84 129 18.1687
85 129 17.5255
86 129 16.6795
87 129 15.6249
88 129 14.4705
89 129 13.3039
90 129 12.0961
91 129 10.5887
92 129 8.32738
93 129 4.83618
94 129 -1.60093
95 129 -1.60093
96 129 -1.60093
97 129 -1.60093
98 129 -1.60093
99 129 -1.60093
100 129 -1.60093
101 129 -1.60093
102 129 -1.60093
103 129 -1.60093
104 129 -1.60093
105 129 -1.60093
106 129 -1.60093
107 129 -1.60093
108 129 -1.60093
109 129 -1.60093
110 129 -1.60093
111 129 -1.60093
112 129 -1.60093
113 129 -1.60093
114 129 -1.60093
115 129 -1.60093
116 129 -1.60093
117 129 -1.60093
118 129 -1.60093
119 129 -1.60093
0 130 -1.60093
1 130 -1.60093
2 130 -1.60093
3 130 -1.60093
4 130 -1.60093
5 130 -1.60093
6 130 -1.60093
7 130 -1.60093
8 130 -1.60093
9 130 -1.60093
10 130 -1.60093
11 130 -1.60093
12 130 -1.60093
13 130 -1.60093
14 130 -1.60093
15 130 -1.60093
16 130 -1.60093
17 130 -1.60093
18 130 -1.60093
19 130 -1.60093
20 130 -1.60093
21 130 -1.60093
22 130 -1.60093
23 130 -1.60093
24 130 -1.60093
25 130 1.66301
26 130 3.10242
27 130 4.09032
28 130 4.82526
29 130 5.38474
30 130 5.89252
31 130 6.66043
32 130 8.08431
33 130 10.3576
34 130 13.061
35 130 15.5232
36 130 17.4467
37 130 18.9312
38 130 20.142
39 130 21.132
40 130 21.8297
41 130 22.2728
42 130 22.6273
43 130 23.0066
44 130 23.4582
45 130 23.9543
46 130 24.3859
47 130 24.6978
48 130 24.8926
49 130 25.0267
50 130 25.1188
51 130 25.1626
52 130 25.175
53 130 25.0723
54 130 24.8123
55 130 24.462
56 130 24.0948
57 130 23.6909
58 130 23.2049
59 130 22.635
60 130 22.0796
61 130 21.5681
62 130 21.1473
63 130 20.8189
64 130 20.5807
65 130 20.426
66 130 20.3875
67 130 20.4512
68 130 20.5167
69 130 20.4591
70 130 20.3178
71 130 20.1554
72 130 20.047
73 130 20.076
74 130 20.1856
75 130 20.2464
76 130 20.2795
77 130 20.2899
78 130 20.2352
79 130 20.1127
80 130 19.9352
81 130 19.7217
82 130 19.4838
83 130 19.1911
84 130 18.7931
85 130 18.2071
86 130 17.4146
87 130 16.3654
88 130 15.1202
89 130 13.7564
90 130 12.3797
91 130 10.7341
92 130 8.36093
93 130 4.71101
94 130 -1.60093
95 130 -1.60093
96 130 -1.60093
97 130 -1.60093
98 130 -1.60093
99 130 -1.60093
100 130 -1.60093
101 130 -1.60093
102 130 -1.60093
103 130 -1.60093
104 130 -1.60093
105 130 -1.60093
106 130 -1.60093
107 130 -1.60093
108 130 -1.60093
109 130 -1.60093
110 130 -1.60093
111 130 -1.60093
112 130 -1.60093
113 130 -1.60093
114 130 -1.60093
115 130 -1.60093
116 130 -1.60093
117 130 -1.60093
118 130 -1.60093
119 130 -1.60093
0 131 -1.60093
1 131 -1.60093
2 131 -1.60093
3 131 -1.60093
4 131 -1.60093
5 131 -1.60093
6 131 -1.60093
7 131 -1.60093
8 131 -1.60093
9 131 -1.60093
10 131 -1.60093
11 131 -1.60093
12 131 -1.60093
13 131 -1.60093
14 131 -1.60093
15 131 -1.60093
16 131 -1.60093
17 131 -1.60093
18 131 -1.60093
19 131 -1.60093
20 131 -1.60093
21 131 -1.60093
22 131 -1.60093
23 131 1.21168
24 131 2.21338
25 131 3.49285
26 131 4.65504
27 131 5.52903
28 131 6.15339
29 131 6.62015
30 131 7.08611
31 131 7.77424
32 131 9.03605
33 131 11.0988
34 131 13.5785
35 131 15.8112
36 131 17.5291
37 131 18.8853
38 131 20.0408
39 131 21.0206
40 131 21.7172
41 131 22.1601
42 131 22.52
43 131 22.8941
44 131 23.3023
45 131 23.7444
46 131 24.1323
47 131 24.4148
48 131 24.6426
49 131 24.848
50 131 24.973
51 131 25.0147
52 131 24.9949
53 131 24.8761
54 131 24.653
55 131 24.3421
56 131 24.0065
57 131 23.6437
58 131 23.2431
59 131 22.7804
60 131 22.294
61 131 21.8296
62 131 21.391
63 131 21.0033
64 131 20.6887
65 131 20.4907
66 131 20.453
67 131 20.5217
68 131 20.598
69 131 20.5937
70 131 20.5186
71 131 20.4105
72 131 20.3604
73 131 20.4487
74 131 20.5703
75 131 20.6224
76 131 20.6253
77 131 20.6164
78 131 20.5954
79 131 20.5204
80 131 20.3859
81 131 20.2117
82 131 19.9884
83 131 19.6889
84 131 19.2789
85 131 18.7403
86 131 18.068
87 131 17.1528
88 131 15.9225
89 131 14.4035
90 131 12.7788
91 131 10.9568
92 131 8.41015
93 131 4.64448
94 131 -1.60093
95 131 -1.60093
96 131 -1.60093
97 131 -1.60093
98 131 -1.60093
99 131 -1.60093
100 131 -1.60093
101 131 -1.60093
102 131 -1.60093
103 131 -1.60093
104 131 -1.60093
105 131 -1.60093
106 131 -1.60093
107 131 -1.60093
108 131 -1.60093
109 131 -1.60093
110 131 -1.60093
111 131 -1.60093
112 131 -1.60093
113 131 -1.60093
114 131 -1.60093
115 131 -1.60093
116 131 -1.60093
117 131 -1.60093
118 131 -1.60093
119 131 -1.60093
0 132 -1.60093
1 132 -1.60093
2 132 -1.60093
3 132 -1.60093
4 132 -1.60093
5 132 -1.60093
6 132 -1.60093
7 132 -1.60093
8 132 -1.60093
9 132 -1.60093
10 132 -1.60093
11 132 -1.60093
12 132 -1.60093
13 132 -1.60093
14 132 -1.60093
15 132 -1.60093
16 132 -1.60093
17 132 -1.60093
18 132 -1.60093
19 132 -1.60093
20 132 -1.60093
21 132 -1.60093
22 132 1.69407
23 132 3.06977
24 132 4.07844
25 132 5.1083
26 132 6.03741
27 132 6.74197
28 132 7.23478
29 132 7.61293
30 132 7.98984
31 132 8.58174
32 132 9.70378
33 132 11.5276
34 132 13.7465
35 132 15.7441
36 132 17.3212
37 132 18.6307
38 132 19.7874
39 132 20.7782
40 132 21.5051
41 132 21.9758
42 132 22.349
43 132 22.72
44 132 23.1178
45 132 23.542
46 132 23.9164
47 132 24.1846
48 132 24.3979
49 132 24.6015
50 132 24.7417
51 132 24.7834
52 132 24.7471
53 132 24.6385
54 132 24.4628
55 132 24.2118
56 132 23.916
57 132 23.5676
58 132 23.1965
59 132 22.8133
60 132 22.433
61 132 22.0032
62 132 21.5388
63 132 21.1021
64 132 20.7722
65 132 20.5828
66 132 20.541
67 132 20.6012
68 132 20.6719
69 132 20.7221
70 132 20.7193
71 132 20.678
72 132 20.6823
73 132 20.7995
74 132 20.9122
75 132 20.9451
76 132 20.9328
77 132 20.9236
78 132 20.9263
79 132 20.8949
80 132 20.833
81 132 20.7154
82 132 20.4992
83 132 20.1463
84 132 19.6934
85 132 19.2042
86 132 18.6093
87 132 17.7953
88 132 16.6558
89 132 15.2277
90 132 13.5366
91 132 11.5017
92 132 8.71585
93 132 4.83059
94 132 -1.60093
95 132 -1.60093
96 132 -1.60093
97 132 -1.60093
98 132 -1.60093
99 132 -1.60093
100 132 -1.60093
101 132 -1.60093
102 132 -1.60093
103 132 -1.60093
104 132 -1.60093
105 132 -1.60093
106 132 -1.60093
107 132 -1.60093
108 132 -1.60093
109 132 -1.60093
110 132 -1.60093
111 132 -1.60093
112 132 -1.60093
113 132 -1.60093
114 132 -1.60093
115 132 -1.60093
116 132 -1.60093
117 132 -1.60093
118 132 -1.60093
119 132 -1.60093
0 133 -1.60093
1 133 -1.60093
2 133 -1.60093
3 133 -1.60093
4 133 -1.60093
5 133 -1.60093
6 133 -1.60093
7 133 -1.60093
8 133 -1.60093
9 133 -1.60093
10 133 -1.60093
11 133 -1.60093
12 133 -1.60093
13 133 -1.60093
14 133 -1.60093
15 133 -1.60093
16 133 -1.60093
17 133 -1.60093
18 133 -1.60093
19 133 -1.60093
20 133 -1.60093
21 133 -1.60093
22 133 2.56736
23 133 4.25965
24 133 5.32154
25 133 6.23212
26 133 7.06253
27 133 7.68777
28 133 8.10518
29 133 8.3739
30 133 8.68586
31 133 9.23904
32 133 10.2451
33 133 11.7966
34 133 13.7173
35 133 15.4892
36 133 16.9891
37 133 18.3291
38 133 19.5572
39 133 20.5822
40 133 21.3156
41 133 21.7743
42 133 22.1498
43 133 22.5405
44 133 22.9437
45 133 23.3708
46 133 23.7285
47 133 23.9627
48 133 24.132
49 133 24.2765
50 133 24.3968
51 133 24.4663
52 133 24.4735
53 133 24.3958
54 133 24.266
55 133 24.0899
56 133 23.8493
57 133 23.4974
58 133 23.1157
59 133 22.7721
60 133 22.4429
61 133 22.029
62 133 21.5655
63 133 21.1644
64 133 20.8888
65 133 20.7319
66 133 20.6886
67 133 20.7499
68 133 20.827
69 133 20.8846
70 133 20.9227
71 133 20.9279
72 133 20.9759
73 133 21.0865
74 133 21.1638
75 133 21.1894
76 133 21.1942
77 133 21.1896
78 133 21.1763
79 133 21.195
80 133 21.2356
81 133 21.1918
82 133 20.9574
83 133 20.5659
84 133 20.1356
85 133 19.6993
86 133 19.1333
87 133 18.3874
88 133 17.3921
89 133 16.1098
90 133 14.4817
91 133 12.2758
92 133 9.18243
93 133 5.03122
94 133 -1.60093
95 133 -1.60093
96 133 -1.60093
97 133 -1.60093
98 133 -1.60093
99 133 -1.60093
100 133 -1.60093
101 133 -1.60093
102 133 -1.60093
103 133 -1.60093
104 133 -1.60093
105 133 -1.60093
106 133 -1.60093
107 133 -1.60093
108 133 -1.60093
109 133 -1.60093
110 133 -1.60093
111 133 -1.60093
112 133 -1.60093
113 133 -1.60093
114 133 -1.60093
115 133 -1.60093
116 133 -1.60093
117 133 -1.60093
118 133 -1.60093
119 133 -1.60093
0 134 -1.60093
1 134 -1.60093
2 134 -1.60093
3 134 -1.60093
4 134 -1.60093
5 134 -1.60093
6 134 -1.60093
7 134 -1.60093
8 134 -1.60093
9 134 -1.60093
10 134 -1.60093
11 134 -1.60093
12 134 -1.60093
13 134 -1.60093
14 134 -1.60093
15 134 -1.60093
16 134 -1.60093
17 134 -1.60093
18 134 -1.60093
19 134 -1.60093
20 134 -1.60093
21 134 1.58539
22 134 3.53735
23 134 5.0224
24 134 6.11153
25 134 7.01985
26 134 7.80103
27 134 8.3785
28 134 8.73395
29 134 8.95648
30 134 9.22642
31 134 9.77502
32 134 10.6883
33 134 11.9785
34 134 13.5934
35 134 15.2386
36 134 16.7009
37 134 18.0519
38 134 19.3077
39 134 20.3544
40 134 21.0669
41 134 21.5321
42 134 21.9428
43 134 22.4052
44 134 22.8551
45 134 23.2463
46 134 23.5516
47 134 23.7535
48 134 23.8644
49 134 23.952
50 134 24.0523
51 134 24.1513
52 134 24.1951
53 134 24.1736
54 134 24.1104
55 134 24.019
56 134 23.8338
57 134 23.4999
58 134 23.1002
59 134 22.7369
60 134 22.3965
61 134 21.9819
62 134 21.5524
63 134 21.2329
64 134 21.0425
65 134 20.9083
66 134 20.8522
67 134 20.9329
68 134 21.0414
69 134 21.0787
70 134 21.1063
71 134 21.1533
72 134 21.2079
73 134 21.28
74 134 21.3083
75 134 21.3323
76 134 21.3636
77 134 21.3752
78 134 21.3728
79 134 21.4258
80 134 21.5058
81 134 21.5103
82 134 21.3116
83 134 20.9551
84 134 20.594
85 134 20.2407
86 134 19.7285
87 134 19.0211
88 134 18.1119
89 134 16.9571
90 134 15.3727
91 134 13.1373
92 134 9.79949
93 134 5.29606
94 134 -1.60093
95 134 -1.60093
96 134 -1.60093
97 134 -1.60093
98 134 -1.60093
99 134 -1.60093
100 134 -1.60093
101 134 -1.60093
102 134 -1.60093
103 134 -1.60093
104 134 -1.60093
105 134 -1.60093
106 134 -1.60093
107 134 -1.60093
108 134 -1.60093
109 134 -1.60093
110 134 -1.60093
111 134 -1.60093
112 134 -1.60093
113 134 -1.60093
114 134 -1.60093
115 134 -1.60093
116 134 -1.60093
117 134 -1.60093
118 134 -1.60093
119 134 -1.60093
0 135 -1.60093
1 135 -1.60093
2 135 -1.60093
3 135 -1.60093
4 135 -1.60093
5 135 -1.60093
6 135 -1.60093
7 135 -1.60093
8 135 -1.60093
9 135 -1.60093
10 135 -1.60093
11 135 -1.60093
12 135 -1.60093
13 135 -1.60093
14 135 -1.60093
15 135 -1.60093
16 135 -1.60093
17 135 -1.60093
18 135 -1.60093
19 135 -1.60093
20 135 1.35758
21 135 2.91795
22 135 4.45363
23 135 5.76348
24 135 6.78896
25 135 7.65981
26 135 8.36014
27 135 8.86703
28 135 9.15976
29 135 9.34688
30 135 9.61864
31 135 10.1781
32 135 11.0223
33 135 12.1045
34 135 13.4798
35 135 14.9953
36 135 16.468
37 135 17.7986
38 135 18.9961
39 135 20.0093
40 135 20.7423
41 135 21.2654
42 135 21.7522
43 135 22.2647
44 135 22.7188
45 135 23.0435
46 135 23.29
47 135 23.4779
48 135 23.5909
49 135 23.6765
50 135 23.7767
51 135 23.8703
52 135 23.9573
53 135 23.9959
54 135 23.9679
55 135 23.9002
56 135 23.7399
57 135 23.4461
58 135 23.0783
59 135 22.7085
60 135 22.3437
61 135 21.9601
62 135 21.5923
63 135 21.3351
64 135 21.1873
65 135 21.0878
66 135 21.035
67 135 21.1085
68 135 21.2054
69 135 21.2239
70 135 21.2297
71 135 21.297
72 135 21.3744
73 135 21.4051
74 135 21.4042
75 135 21.4183
76 135 21.4678
77 135 21.496
78 135 21.5282
79 135 21.6031
80 135 21.6965
81 135 21.7322
82 135 21.5989
83 135 21.3294
84 135 21.0613
85 135 20.7893
86 135 20.3485
87 135 19.663
88 135 18.7709
89 135 17.6601
90 135 16.1494
91 135 13.9513
92 135 10.6541
93 135 5.97371
94 135 -1.60093
95 135 -1.60093
96 135 -1.60093
97 135 -1.60093
98 135 -1.60093
99 135 -1.60093
100 135 -1.60093
101 135 -1.60093
102 135 -1.60093
103 135 -1.60093
104 135 -1.60093
105 135 -1.60093
106 135 -1.60093
107 135 -1.60093
108 135 -1.60093
109 135 -1.60093
110 135 -1.60093
111 135 -1.60093
112 135 -1.60093
113 135 -1.60093
114 135 -1.60093
115 135 -1.60093
116 135 -1.60093
117 135 -1.60093
118 135 -1.60093
119 135 -1.60093
0 136 -1.60093
1 136 -1.60093
2 136 -1.60093
3 136 -1.60093
4 136 -1.60093
5 136 -1.60093
6 136 -1.60093
7 136 -1.60093
8 136 -1.60093
9 136 -1.60093
10 136 -1.60093
11 136 -1.60093
12 136 -1.60093
13 136 -1.60093
14 136 -1.60093
15 136 -1.60093
16 136 -1.60093
17 136 -1.60093
18 136 0.671997
19 136 1.68394
20 136 3.03047
21 136 4.31082
22 136 5.50633
23 136 6.57895
24 136 7.48013
25 136 8.21879
26 136 8.79568
27 136 9.20739
28 136 9.46245
29 136 9.62675
30 136 9.934
31 136 10.496
32 136 11.2601
33 136 12.1925
34 136 13.3977
35 136 14.8015
36 136 16.2231
37 136 17.5134
38 136 18.6591
39 136 19.6496
40 136 20.4479
41 136 21.0348
42 136 21.5474
43 136 22.0395
44 136 22.4347
45 136 22.6975
46 136 22.9029
47 136 23.1225
48 136 23.2852
49 136 23.4246
50 136 23.5582
51 136 23.6975
52 136 23.806
53 136 23.8447
54 136 23.7901
55 136 23.6737
56 136 23.5255
57 136 23.3046
58 136 23.0283
59 136 22.6993
60 136 22.3423
61 136 22.0067
62 136 21.7092
63 136 21.4735
64 136 21.3336
65 136 21.2485
66 136 21.2262
67 136 21.2659
68 136 21.3148
69 136 21.2976
70 136 21.3118
71 136 21.399
72 136 21.4963
73 136 21.5094
74 136 21.4827
75 136 21.4741
76 136 21.509
77 136 21.5472
78 136 21.61
79 136 21.7193
80 136 21.8358
81 136 21.9102
82 136 21.8524
83 136 21.6981
84 136 21.5122
85 136 21.3033
86 136 20.8974
87 136 20.2097
88 136 19.3009
89 136 18.19
90 136 16.7363
91 136 14.6459
92 136 11.521
93 136 6.92058
94 136 -1.60093
95 136 -1.60093
96 136 -1.60093
97 136 -1.60093
98 136 -1.60093
99 136 -1.60093
100 136 -1.60093
101 136 -1.60093
102 136 -1.60093
103 136 -1.60093
104 136 -1.60093
105 136 -1.60093
106 136 -1.60093
107 136 -1.60093
108 136 -1.60093
109 136 -1.60093
110 136 -1.60093
111 136 -1.60093
112 136 -1.60093
113 136 -1.60093
114 136 -1.60093
115 136 -1.60093
116 136 -1.60093
117 136 -1.60093
118 136 -1.60093
119 136 -1.60093
0 137 -1.60093
1 137 -1.60093
2 137 -1.60093
3 137 -1.60093
4 137 -1.60093
5 137 -1.60093
6 137 -1.60093
7 137 -1.60093
8 137 -1.60093
9 137 -1.60093
10 137 -1.60093
11 137 -1.60093
12 137 -1.60093
13 137 -1.60093
14 137 -1.60093
15 137 -1.60093
16 137 -1.60093
17 137 1.54209
18 137 2.61899
19 137 3.72309
20 137 4.8079
21 137 5.72242
22 137 6.58732
23 137 7.41359
24 137 8.11464
25 137 8.66912
26 137 9.11937
27 137 9.47555
28 137 9.72358
29 137 9.9345
30 137 10.2921
31 137 10.845
32 137 11.5201
33 137 12.3369
34 137 13.3922
35 137 14.6915
36 137 16.0258
37 137 17.2759
38 137 18.3859
39 137 19.3517
40 137 20.1785
41 137 20.8265
42 137 21.3452
43 137 21.7651
44 137 22.0707
45 137 22.2753
46 137 22.4886
47 137 22.7277
48 137 22.9452
49 137 23.1199
50 137 23.3244
51 137 23.5198
52 137 23.6628
53 137 23.6882
54 137 23.5877
55 137 23.4258
56 137 23.2639
57 137 23.1163
58 137 22.9331
59 137 22.6863
60 137 22.3735
61 137 22.0897
62 137 21.8365
63 137 21.6229
64 137 21.4866
65 137 21.4252
66 137 21.3973
67 137 21.4052
68 137 21.3967
69 137 21.3889
70 137 21.4231
71 137 21.5189
72 137 21.5847
73 137 21.5703
74 137 21.5066
75 137 21.4738
76 137 21.5077
77 137 21.5599
78 137 21.6412
79 137 21.7663
80 137 21.9135
81 137 22.0005
82 137 21.974
83 137 21.8812
84 137 21.7722
85 137 21.6077
86 137 21.2443
87 137 20.5891
88 137 19.7036
89 137 18.61
90 137 17.2045
91 137 15.2758
92 137 12.4797
93 137 8.52548
94 137 3.5006
95 137 -1.60093
96 137 -1.60093
97 137 -1.60093
98 137 -1.60093
99 137 -1.60093
100 137 -1.60093
101 137 -1.60093
102 137 -1.60093
103 137 -1.60093
104 137 -1.60093
105 137 -1.60093
106 137 -1.60093
107 137 -1.60093
108 137 -1.60093
109 137 -1.60093
110 137 -1.60093
111 137 -1.60093
112 137 -1.60093
113 137 -1.60093
114 137 -1.60093
115 137 -1.60093
116 137 -1.60093
117 137 -1.60093
118 137 -1.60093
119 137 -1.60093
0 138 -1.60093
1 138 -1.60093
2 138 -1.60093
3 138 -1.60093
4 138 -1.60093
5 138 -1.60093
6 138 -1.60093
7 138 -1.60093
8 138 -1.60093
9 138 -1.60093
10 138 -1.60093
11 138 -1.60093
12 138 -1.60093
13 138 -1.60093
14 138 -1.60093
15 138 -1.60093
16 138 1.62461
17 138 3.16564
18 138 4.43959
19 138 5.53244
20 138 6.37627
21 138 6.99965
22 138 7.60331
23 138 8.20059
24 138 8.70354
25 138 9.0749
26 138 9.40843
27 138 9.74576
28 138 10.0391
29 138 10.3302
30 138 10.7339
31 138 11.2552
32 138 11.8517
33 138 12.5738
34 138 13.538
35 138 14.7143
36 138 15.9767
37 138 17.1817
38 138 18.247
39 138 19.148
40 138 19.92
41 138 20.5782
42 138 21.1182
43 138 21.4977
44 138 21.7358
45 138 21.908
46 138 22.104
47 138 22.3483
48 138 22.5789
49 138 22.7842
50 138 23.0238
51 138 23.2638
52 138 23.4267
53 138 23.4753
54 138 23.3612
55 138 23.1703
56 138 23.018
57 138 22.902
58 138 22.7929
59 138 22.6342
60 138 22.3797
61 138 22.1323
62 138 21.9406
63 138 21.7977
64 138 21.6953
65 138 21.6196
66 138 21.5648
67 138 21.53
68 138 21.5137
69 138 21.5149
70 138 21.5631
71 138 21.6346
72 138 21.6511
73 138 21.5909
74 138 21.4893
75 138 21.4494
76 138 21.5017
77 138 21.5764
78 138 21.6542
79 138 21.7343
80 138 21.8191
81 138 21.8642
82 138 21.8343
83 138 21.7647
84 138 21.6891
85 138 21.5598
86 138 21.2608
87 138 20.7256
88 138 19.9376
89 138 18.9292
90 138 17.6181
91 138 15.8085
92 138 13.2689
93 138 9.76013
94 138 5.56719
95 138 2.05139
96 138 -1.60093
97 138 -1.60093
98 138 -1.60093
99 138 -1.60093
100 138 -1.60093
101 138 -1.60093
102 138 -1.60093
103 138 -1.60093
104 138 -1.60093
105 138 -1.60093
106 138 -1.60093
107 138 -1.60093
108 138 -1.60093
109 138 -1.60093
110 138 -1.60093
111 138 -1.60093
112 138 -1.60093
113 138 -1.60093
114 138 -1.60093
115 138 -1.60093
116 138 -1.60093
117 138 -1.60093
118 138 -1.60093
119 138 -1.60093
0 139 -1.60093
1 139 -1.60093
2 139 -1.60093
3 139 -1.60093
4 139 -1.60093
5 139 -1.60093
6 139 -1.60093
7 139 -1.60093
8 139 -1.60093
9 139 -1.60093
10 139 -1.60093
11 139 -1.60093
12 139 -1.60093
13 139 -1.60093
14 139 1.08195
15 139 2.12033
16 139 3.36681
17 139 4.59394
18 139 5.8049
19 139 6.85226
20 139 7.57023
21 139 8.03714
22 139 8.45635
23 139 8.90116
24 139 9.25721
25 139 9.51936
26 139 9.76816
27 139 10.0574
28 139 10.3913
29 139 10.7574
30 139 11.2096
31 139 11.7105
32 139 12.276
33 139 12.959
34 139 13.8482
35 139 14.9245
36 139 16.1067
37 139 17.2385
38 139 18.2144
39 139 19.0042
40 139 19.6791
41 139 20.3014
42 139 20.8295
43 139 21.2051
44 139 21.4352
45 139 21.6065
46 139 21.7974
47 139 22.0243
48 139 22.2522
49 139 22.4809
50 139 22.734
51 139 22.9606
52 139 23.1244
53 139 23.1737
54 139 23.0776
55 139 22.9084
56 139 22.7813
57 139 22.7064
58 139 22.6562
59 139 22.5699
60 139 22.3863
61 139 22.1645
62 139 22.0312
63 139 21.9645
64 139 21.9049
65 139 21.813
66 139 21.7263
67 139 21.6888
68 139 21.6745
69 139 21.663
70 139 21.6813
71 139 21.7272
72 139 21.7186
73 139 21.6195
74 139 21.4993
75 139 21.4683
76 139 21.5248
77 139 21.5965
78 139 21.6224
79 139 21.6148
80 139 21.6129
81 139 21.5948
82 139 21.5261
83 139 21.4248
84 139 21.3247
85 139 21.2221
86 139 21.0036
87 139 20.5556
88 139 19.8825
89 139 19.0129
90 139 17.8141
91 139 16.1172
92 139 13.7668
93 139 10.717
94 139 7.26138
95 139 4.19148
96 139 2.08464
97 139 0.928002
98 139 -1.60093
99 139 -1.60093
100 139 -1.60093
101 139 -1.60093
102 139 -1.60093
103 139 -1.60093
104 139 -1.60093
105 139 -1.60093
106 139 -1.60093
107 139 -1.60093
108 139 -1.60093
109 139 -1.60093
110 139 -1.60093
111 139 -1.60093
112 139 -1.60093
113 139 -1.60093
114 139 -1.60093
115 139 -1.60093
116 139 -1.60093
117 139 -1.60093
118 139 -1.60093
119 139 -1.60093
0 140 -1.60093
1 140 -1.60093
2 140 -1.60093
3 140 -1.60093
4 140 -1.60093
5 140 -1.60093
6 140 -1.60093
7 140 -1.60093
8 140 -1.60093
9 140 -1.60093
10 140 -1.60093
11 140 -1.60093
12 140 -1.60093
13 140 1.29804
14 140 2.71671
15 140 3.98911
16 140 5.0575
17 140 5.99658
18 140 6.90689
19 140 7.77833
20 140 8.42924
21 140 8.82875
22 140 9.15948
23 140 9.51131
24 140 9.77438
25 140 9.95819
26 140 10.1383
27 140 10.3805
28 140 10.7214
29 140 11.153
30 140 11.667
31 140 12.208
32 140 12.7868
33 140 13.4673
34 140 14.2933
35 140 15.2831
36 140 16.3508
37 140 17.3603
38 140 18.1994
39 140 18.898
40 140 19.4952
41 140 20.0397
42 140 20.5161
43 140 20.871
44 140 21.1275
45 140 21.3502
46 140 21.5627
47 140 21.7751
48 140 21.9996
49 140 22.2462
50 140 22.4874
51 140 22.6884
52 140 22.8352
53 140 22.8735
54 140 22.7922
55 140 22.6621
56 140 22.585
57 140 22.5761
58 140 22.5902
59 140 22.5669
60 140 22.4289
61 140 22.2406
62 140 22.1289
63 140 22.0989
64 140 22.0541
65 140 21.9526
66 140 21.8726
67 140 21.8527
68 140 21.8586
69 140 21.8064
70 140 21.7462
71 140 21.7342
72 140 21.7244
73 140 21.6476
74 140 21.5562
75 140 21.5278
76 140 21.5791
77 140 21.5904
78 140 21.5327
79 140 21.4504
80 140 21.3947
81 140 21.3432
82 140 21.2161
83 140 21.0419
84 140 20.8931
85 140 20.7568
86 140 20.524
87 140 20.1037
88 140 19.5264
89 140 18.7816
90 140 17.7187
91 140 16.0868
92 140 13.8178
93 140 11.1393
94 140 8.34383
95 140 5.846
96 140 3.86135
97 140 2.4407
98 140 1.62031
99 140 1.21927
100 140 -1.60093
101 140 -1.60093
102 140 -1.60093
103 140 -1.60093
104 140 -1.60093
105 140 -1.60093
106 140 -1.60093
107 140 -1.60093
108 140 -1.60093
109 140 -1.60093
110 140 -1.60093
111 140 -1.60093
112 140 -1.60093
113 140 -1.60093
114 140 -1.60093
115 140 -1.60093
116 140 -1.60093
117 140 -1.60093
118 140 -1.60093
119 140 -1.60093
0 141 -1.60093
1 141 -1.60093
2 141 -1.60093
3 141 -1.60093
4 141 -1.60093
5 141 -1.60093
6 141 -1.60093
7 141 -1.60093
8 141 -1.60093
9 141 -1.60093
10 141 -1.60093
11 141 -1.60093
12 141 1.67185
13 141 2.99682
14 141 4.34958
15 141 5.58345
16 141 6.55323
17 141 7.27536
18 141 7.92556
19 141 8.5765
20 141 9.11209
21 141 9.46552
22 141 9.73401
23 141 9.99594
24 141 10.1711
25 141 10.2837
26 141 10.4314
27 141 10.6608
28 141 11.0141
29 141 11.5233
30 141 12.1463
31 141 12.7808
32 141 13.4022
33 141 14.0733
34 141 14.8177
35 141 15.6845
36 141 16.6127
37 141 17.4659
38 141 18.2017
39 141 18.8283
40 141 19.3638
41 141 19.8301
42 141 20.2217
43 141 20.5582
44 141 20.8748
45 141 21.1696
46 141 21.4149
47 141 21.6362
48 141 21.8563
49 141 22.0844
50 141 22.3111
51 141 22.4939
52 141 22.596
53 141 22.5994
54 141 22.5329
55 141 22.4438
56 141 22.4247
57 141 22.4714
58 141 22.5616
59 141 22.5908
60 141 22.4959
61 141 22.3356
62 141 22.2251
63 141 22.1732
64 141 22.1214
65 141 22.0399
66 141 21.9899
67 141 21.9963
68 141 21.9998
69 141 21.9093
70 141 21.7632
71 141 21.6757
72 141 21.6559
73 141 21.628
74 141 21.5691
75 141 21.5252
76 141 21.5233
77 141 21.4887
78 141 21.3747
79 141 21.262
80 141 21.1937
81 141 21.0899
82 141 20.8926
83 141 20.6681
84 141 20.4837
85 141 20.2967
86 141 20.0044
