ply
format ascii 1.0
comment Created by Open3D
element vertex 3182
property double x
property double y
property double z
end_header
87 101 9.18221
88 101 7.58773
89 101 5.85398
90 101 4.08721
91 101 -3.1276
92 101 -3.1276
93 101 -3.1276
94 101 -3.1276
95 101 -3.1276
96 101 -3.1276
97 101 -3.1276
98 101 -3.1276
99 101 -3.1276
100 101 -3.1276
101 101 -3.1276
102 101 -3.1276
103 101 -3.1276
104 101 -3.1276
105 101 -3.1276
106 101 -3.1276
107 101 -3.1276
108 101 -3.1276
109 101 -3.1276
110 101 -3.1276
111 101 -3.1276
112 101 -3.1276
113 101 -3.1276
114 101 -3.1276
115 101 -3.1276
116 101 -3.1276
117 101 -3.1276
118 101 -3.1276
119 101 -3.1276
0 102 -3.1276
1 102 -3.1276
2 102 -3.1276
3 102 -3.1276
4 102 -3.1276
5 102 -3.1276
6 102 -3.1276
7 102 -3.1276
8 102 -3.1276
9 102 -3.1276
10 102 -3.1276
11 102 -3.1276
12 102 -3.1276
13 102 -3.1276
14 102 -3.1276
15 102 -3.1276
16 102 -3.1276
17 102 -3.1276
18 102 -3.1276
19 102 -3.1276
20 102 -3.1276
21 102 -3.1276
22 102 -3.1276
23 102 -3.1276
24 102 -3.1276
25 102 -3.1276
26 102 -3.1276
27 102 -3.1276
28 102 -3.1276
29 102 -3.1276
30 102 -3.1276
31 102 -3.1276
32 102 -3.1276
33 102 -3.1276
34 102 -3.1276
35 102 8.7026
36 102 10.8774
37 102 11.3801
38 102 11.6695
39 102 12.3104
40 102 13.0425
41 102 13.6949
42 102 14.1365
43 102 15.1116
44 102 16.9137
45 102 18.5089
46 102 19.6666
47 102 20.592
48 102 21.2955
49 102 21.8776
50 102 22.3369
51 102 22.6345
52 102 22.8634
53 102 23.029
54 102 23.1334
55 102 23.1754
56 102 23.1546
57 102 23.1132
58 102 22.9858
59 102 22.8153
60 102 22.6515
61 102 22.5118
62 102 22.3814
63 102 22.2763
64 102 22.1959
65 102 22.1407
66 102 22.0928
67 102 22.0541
68 102 21.999
69 102 21.9588
70 102 21.9137
71 102 21.8667
72 102 21.8541
73 102 21.7765
74 102 21.6893
75 102 21.5354
76 102 21.2468
77 102 20.8248
78 102 20.2734
79 102 19.5788
80 102 18.7617
81 102 17.8242
82 102 16.7179
83 102 15.4112
84 102 13.9025
85 102 12.1327
86 102 10.232
87 102 8.2924
88 102 6.39524
89 102 4.59563
90 102 2.3633
91 102 -3.1276
92 102 -3.1276
93 102 -3.1276
94 102 -3.1276
95 102 -3.1276
96 102 -3.1276
97 102 -3.1276
98 102 -3.1276
99 102 -3.1276
100 102 -3.1276
101 102 -3.1276
102 102 -3.1276
103 102 -3.1276
104 102 -3.1276
105 102 -3.1276
106 102 -3.1276
107 102 -3.1276
108 102 -3.1276
109 102 -3.1276
110 102 -3.1276
111 102 -3.1276
112 102 -3.1276
113 102 -3.1276
114 102 -3.1276
115 102 -3.1276
116 102 -3.1276
117 102 -3.1276
118 102 -3.1276
119 102 -3.1276
0 103 -3.1276
1 103 -3.1276
2 103 -3.1276
3 103 -3.1276
4 103 -3.1276
5 103 -3.1276
6 103 -3.1276
7 103 -3.1276
8 103 -3.1276
9 103 -3.1276
10 103 -3.1276
11 103 -3.1276
12 103 -3.1276
13 103 -3.1276
14 103 -3.1276
15 103 -3.1276
16 103 -3.1276
17 103 -3.1276
18 103 -3.1276
19 103 -3.1276
20 103 -3.1276
21 103 -3.1276
22 103 -3.1276
23 103 -3.1276
24 103 -3.1276
25 103 -3.1276
26 103 -3.1276
27 103 -3.1276
28 103 -3.1276
29 103 -3.1276
30 103 -3.1276
31 103 -3.1276
32 103 -3.1276
33 103 -3.1276
34 103 -3.1276
35 103 1.27605
36 103 8.00331
37 103 9.5611
38 103 10.1602
39 103 11.1536
40 103 12.1525
41 103 12.9367
42 103 13.7143
43 103 15.5841
44 103 17.5967
45 103 19.0403
46 103 20.1224
47 103 20.9947
48 103 21.638
49 103 22.175
50 103 22.5907
51 103 22.8496
52 103 23.0604
53 103 23.2059
54 103 23.2667
55 103 23.3017
56 103 23.2502
57 103 23.1214
58 103 22.9577
59 103 22.8167
60 103 22.6684
61 103 22.5271
62 103 22.4082
63 103 22.2984
64 103 22.2232
65 103 22.1785
66 103 22.1329
67 103 22.0895
68 103 22.0706
69 103 22.0093
70 103 21.9803
71 103 21.9503
72 103 21.8886
73 103 21.7904
74 103 21.6669
75 103 21.486
76 103 21.1817
77 103 20.7519
78 103 20.1862
79 103 19.4779
80 103 18.6352
81 103 17.7177
82 103 16.6007
83 103 15.2987
84 103 13.8286
85 103 12.0701
86 103 10.043
87 103 7.77574
88 103 5.40839
89 103 2.88703
90 103 -3.1276
91 103 -3.1276
92 103 -3.1276
93 103 -3.1276
94 103 -3.1276
95 103 -3.1276
96 103 -3.1276
97 103 -3.1276
98 103 -3.1276
99 103 -3.1276
100 103 -3.1276
101 103 -3.1276
102 103 -3.1276
103 103 -3.1276
104 103 -3.1276
105 103 -3.1276
106 103 -3.1276
107 103 -3.1276
108 103 -3.1276
109 103 -3.1276
110 103 -3.1276
111 103 -3.1276
112 103 -3.1276
113 103 -3.1276
114 103 -3.1276
115 103 -3.1276
116 103 -3.1276
117 103 -3.1276
118 103 -3.1276
119 103 -3.1276
0 104 -3.1276
1 104 -3.1276
2 104 -3.1276
3 104 -3.1276
4 104 -3.1276
5 104 -3.1276
6 104 -3.1276
7 104 -3.1276
8 104 -3.1276
9 104 -3.1276
10 104 -3.1276
11 104 -3.1276
12 104 -3.1276
13 104 -3.1276
14 104 -3.1276
15 104 -3.1276
16 104 -3.1276
17 104 -3.1276
18 104 -3.1276
19 104 -3.1276
20 104 -3.1276
21 104 -3.1276
22 104 -3.1276
23 104 -3.1276
24 104 -3.1276
25 104 -3.1276
26 104 -3.1276
27 104 -3.1276
28 104 -3.1276
29 104 -3.1276
30 104 -3.1276
31 104 -3.1276
32 104 -3.1276
33 104 -3.1276
34 104 -3.1276
35 104 -3.1276
36 104 2.7703
37 104 7.18357
38 104 8.30016
39 104 9.77273
40 104 11.2029
41 104 12.0559
42 104 13.8655
43 104 16.3815
44 104 18.1222
45 104 19.4838
46 104 20.4692
47 104 21.2964
48 104 21.9103
49 104 22.4043
50 104 22.7691
51 104 23.0035
52 104 23.1848
53 104 23.3003
54 104 23.3556
55 104 23.3496
56 104 23.2846
57 104 23.1564
58 104 23.0174
59 104 22.8845
60 104 22.7336
61 104 22.5892
62 104 22.4647
63 104 22.3626
64 104 22.283
65 104 22.2288
66 104 22.1972
67 104 22.1534
68 104 22.1268
69 104 22.0936
70 104 22.0575
71 104 21.9949
72 104 21.906
73 104 21.7728
74 104 21.6197
75 104 21.4273
76 104 21.1071
77 104 20.673
78 104 20.1024
79 104 19.3921
80 104 18.5437
81 104 17.6137
82 104 16.5487
83 104 15.2475
84 104 13.8018
85 104 12.1251
86 104 10.1581
87 104 7.8521
88 104 5.4073
89 104 2.87461
90 104 -3.1276
91 104 -3.1276
92 104 -3.1276
93 104 -3.1276
94 104 -3.1276
95 104 -3.1276
96 104 -3.1276
97 104 -3.1276
98 104 -3.1276
99 104 -3.1276
100 104 -3.1276
101 104 -3.1276
102 104 -3.1276
103 104 -3.1276
104 104 -3.1276
105 104 -3.1276
106 104 -3.1276
107 104 -3.1276
108 104 -3.1276
109 104 -3.1276
110 104 -3.1276
111 104 -3.1276
112 104 -3.1276
113 104 -3.1276
114 104 -3.1276
115 104 -3.1276
116 104 -3.1276
117 104 -3.1276
118 104 -3.1276
119 104 -3.1276
0 105 -3.1276
1 105 -3.1276
2 105 -3.1276
3 105 -3.1276
4 105 -3.1276
5 105 -3.1276
6 105 -3.1276
7 105 -3.1276
8 105 -3.1276
9 105 -3.1276
10 105 -3.1276
11 105 -3.1276
12 105 -3.1276
13 105 -3.1276
14 105 -3.1276
15 105 -3.1276
16 105 -3.1276
17 105 -3.1276
18 105 -3.1276
19 105 -3.1276
20 105 -3.1276
21 105 -3.1276
22 105 -3.1276
23 105 -3.1276
24 105 -3.1276
25 105 -3.1276
26 105 -3.1276
27 105 -3.1276
28 105 -3.1276
29 105 -3.1276
30 105 -3.1276
31 105 -3.1276
32 105 -3.1276
33 105 -3.1276
34 105 -3.1276
35 105 -3.1276
36 105 0.180933
37 105 5.19245
38 105 6.42633
39 105 8.27454
40 105 10.1038
41 105 11.8126
42 105 14.6161
43 105 16.9435
44 105 18.543
45 105 19.8077
46 105 20.7583
47 105 21.5267
48 105 22.1091
49 105 22.5458
50 105 22.8776
51 105 23.0703
52 105 23.216
53 105 23.3213
54 105 23.3494
55 105 23.3302
56 105 23.2625
57 105 23.1588
58 105 23.0402
59 105 22.9353
60 105 22.8128
61 105 22.6958
62 105 22.5907
63 105 22.471
64 105 22.3712
65 105 22.3002
66 105 22.2502
67 105 22.2065
68 105 22.1998
69 105 22.175
70 105 22.1027
71 105 22.0122
72 105 21.8894
73 105 21.7388
74 105 21.5586
75 105 21.3447
76 105 21.0411
77 105 20.6003
78 105 20.039
79 105 19.3194
80 105 18.4868
81 105 17.5386
82 105 16.4758
83 105 15.2612
84 105 13.8213
85 105 12.1783
86 105 10.3638
87 105 8.18116
88 105 5.75918
89 105 3.07954
90 105 -3.1276
91 105 -3.1276
92 105 -3.1276
93 105 -3.1276
94 105 -3.1276
95 105 -3.1276
96 105 -3.1276
97 105 -3.1276
98 105 -3.1276
99 105 -3.1276
100 105 -3.1276
101 105 -3.1276
102 105 -3.1276
103 105 -3.1276
104 105 -3.1276
105 105 -3.1276
106 105 -3.1276
107 105 -3.1276
108 105 -3.1276
109 105 -3.1276
110 105 -3.1276
111 105 -3.1276
112 105 -3.1276
113 105 -3.1276
114 105 -3.1276
115 105 -3.1276
116 105 -3.1276
117 105 -3.1276
118 105 -3.1276
119 105 -3.1276
0 106 -3.1276
1 106 -3.1276
2 106 -3.1276
3 106 -3.1276
4 106 -3.1276
5 106 -3.1276
6 106 -3.1276
7 106 -3.1276
8 106 -3.1276
9 106 -3.1276
10 106 -3.1276
11 106 -3.1276
12 106 -3.1276
13 106 -3.1276
14 106 -3.1276
15 106 -3.1276
16 106 -3.1276
17 106 -3.1276
18 106 -3.1276
19 106 -3.1276
20 106 -3.1276
21 106 -3.1276
22 106 -3.1276
23 106 -3.1276
24 106 -3.1276
25 106 -3.1276
26 106 -3.1276
27 106 -3.1276
28 106 -3.1276
29 106 -3.1276
30 106 -3.1276
31 106 -3.1276
32 106 -3.1276
33 106 -3.1276
34 106 -3.1276
35 106 -3.1276
36 106 -3.1276
37 106 1.91399
38 106 4.38279
39 106 6.84841
40 106 9.21356
41 106 12.2991
42 106 15.3126
43 106 17.3501
44 106 18.8557
45 106 20.0467
46 106 20.9545
47 106 21.693
48 106 22.2144
49 106 22.597
50 106 22.8965
51 106 23.0531
52 106 23.1646
53 106 23.2496
54 106 23.2809
55 106 23.2649
56 106 23.2104
57 106 23.1328
58 106 23.0335
59 106 22.936
60 106 22.8525
61 106 22.7539
62 106 22.662
63 106 22.5693
64 106 22.483
65 106 22.4205
66 106 22.3464
67 106 22.306
68 106 22.2725
69 106 22.211
70 106 22.1204
71 106 22.0181
72 106 21.8884
73 106 21.6985
74 106 21.4771
75 106 21.2597
76 106 20.9519
77 106 20.5178
78 106 19.9682
79 106 19.2631
80 106 18.4239
81 106 17.5067
82 106 16.4638
83 106 15.2603
84 106 13.875
85 106 12.3014
86 106 10.54
87 106 8.5032
88 106 6.13188
89 106 3.43794
90 106 -3.1276
91 106 -3.1276
92 106 -3.1276
93 106 -3.1276
94 106 -3.1276
95 106 -3.1276
96 106 -3.1276
97 106 -3.1276
98 106 -3.1276
99 106 -3.1276
100 106 -3.1276
101 106 -3.1276
102 106 -3.1276
103 106 -3.1276
104 106 -3.1276
105 106 -3.1276
106 106 -3.1276
107 106 -3.1276
108 106 -3.1276
109 106 -3.1276
110 106 -3.1276
111 106 -3.1276
112 106 -3.1276
113 106 -3.1276
114 106 -3.1276
115 106 -3.1276
116 106 -3.1276
117 106 -3.1276
118 106 -3.1276
119 106 -3.1276
0 107 -3.1276
1 107 -3.1276
2 107 -3.1276
3 107 -3.1276
4 107 -3.1276
5 107 -3.1276
6 107 -3.1276
7 107 -3.1276
8 107 -3.1276
9 107 -3.1276
10 107 -3.1276
11 107 -3.1276
12 107 -3.1276
13 107 -3.1276
14 107 -3.1276
15 107 -3.1276
16 107 -3.1276
17 107 -3.1276
18 107 -3.1276
19 107 -3.1276
20 107 -3.1276
21 107 -3.1276
22 107 -3.1276
23 107 -3.1276
24 107 -3.1276
25 107 -3.1276
26 107 -3.1276
27 107 -3.1276
28 107 -3.1276
29 107 -3.1276
30 107 -3.1276
31 107 -3.1276
32 107 -3.1276
33 107 -3.1276
34 107 -3.1276
35 107 -3.1276
36 107 -3.1276
37 107 0.382314
38 107 2.54107
39 107 4.49598
40 107 9.36378
41 107 13.3026
42 107 15.8041
43 107 17.6738
44 107 19.1067
45 107 20.2313
46 107 21.0955
47 107 21.761
48 107 22.2486
49 107 22.5941
50 107 22.8626
51 107 22.9564
52 107 23.0525
53 107 23.1377
54 107 23.1785
55 107 23.1743
56 107 23.1424
57 107 23.0794
58 107 23.0059
59 107 22.9296
60 107 22.8522
61 107 22.7843
62 107 22.7127
63 107 22.6339
64 107 22.56
65 107 22.501
66 107 22.4341
67 107 22.3729
68 107 22.3127
69 107 22.2243
70 107 22.1366
71 107 22.0048
72 107 21.8362
73 107 21.6359
74 107 21.4234
75 107 21.163
76 107 20.8608
77 107 20.4508
78 107 19.9102
79 107 19.2425
80 107 18.4023
81 107 17.4947
82 107 16.4974
83 107 15.3451
84 107 14.0189
85 107 12.5054
86 107 10.8207
87 107 8.87791
88 107 6.63942
89 107 3.91071
90 107 0.372932
91 107 -3.1276
92 107 -3.1276
93 107 -3.1276
94 107 -3.1276
95 107 -3.1276
96 107 -3.1276
97 107 -3.1276
98 107 -3.1276
99 107 -3.1276
100 107 -3.1276
101 107 -3.1276
102 107 -3.1276
103 107 -3.1276
104 107 -3.1276
105 107 -3.1276
106 107 -3.1276
107 107 -3.1276
108 107 -3.1276
109 107 -3.1276
110 107 -3.1276
111 107 -3.1276
112 107 -3.1276
113 107 -3.1276
114 107 -3.1276
115 107 -3.1276
116 107 -3.1276
117 107 -3.1276
118 107 -3.1276
119 107 -3.1276
0 108 -3.1276
1 108 -3.1276
2 108 -3.1276
3 108 -3.1276
4 108 -3.1276
5 108 -3.1276
6 108 -3.1276
7 108 -3.1276
8 108 -3.1276
9 108 -3.1276
10 108 -3.1276
11 108 -3.1276
12 108 -3.1276
13 108 -3.1276
14 108 -3.1276
15 108 -3.1276
16 108 -3.1276
17 108 -3.1276
18 108 -3.1276
19 108 -3.1276
20 108 -3.1276
21 108 -3.1276
22 108 -3.1276
23 108 -3.1276
24 108 -3.1276
25 108 -3.1276
26 108 -3.1276
27 108 -3.1276
28 108 -3.1276
29 108 -3.1276
30 108 -3.1276
31 108 -3.1276
32 108 -3.1276
33 108 -3.1276
34 108 -3.1276
35 108 -3.1276
36 108 -3.1276
37 108 -3.1276
38 108 -3.1276
39 108 -3.1276
40 108 10.6717
41 108 14.0215
42 108 16.3016
43 108 17.9741
44 108 19.3092
45 108 20.3292
46 108 21.1115
47 108 21.7666
48 108 22.2093
49 108 22.5333
50 108 22.7356
51 108 22.8499
52 108 22.8941
53 108 22.9626
54 108 23.0176
55 108 23.0576
56 108 23.0629
57 108 23.0152
58 108 22.9571
59 108 22.8897
60 108 22.8337
61 108 22.7879
62 108 22.737
63 108 22.6728
64 108 22.6242
65 108 22.5663
66 108 22.4846
67 108 22.4171
68 108 22.3254
69 108 22.2267
70 108 22.1159
71 108 21.9778
72 108 21.7965
73 108 21.5935
74 108 21.3588
75 108 21.0786
76 108 20.7616
77 108 20.3737
78 108 19.8672
79 108 19.2038
80 108 18.3932
81 108 17.5228
82 108 16.5448
83 108 15.4214
84 108 14.1519
85 108 12.7194
86 108 11.1392
87 108 9.31988
88 108 7.24509
89 108 4.73249
90 108 1.40678
91 108 -3.1276
92 108 -3.1276
93 108 -3.1276
94 108 -3.1276
95 108 -3.1276
96 108 -3.1276
97 108 -3.1276
98 108 -3.1276
99 108 -3.1276
100 108 -3.1276
101 108 -3.1276
102 108 -3.1276
103 108 -3.1276
104 108 -3.1276
105 108 -3.1276
106 108 -3.1276
107 108 -3.1276
108 108 -3.1276
109 108 -3.1276
110 108 -3.1276
111 108 -3.1276
112 108 -3.1276
113 108 -3.1276
114 108 -3.1276
115 108 -3.1276
116 108 -3.1276
117 108 -3.1276
118 108 -3.1276
119 108 -3.1276
0 109 -3.1276
1 109 -3.1276
2 109 -3.1276
3 109 -3.1276
4 109 -3.1276
5 109 -3.1276
6 109 -3.1276
7 109 -3.1276
8 109 -3.1276
9 109 -3.1276
10 109 -3.1276
11 109 -3.1276
12 109 -3.1276
13 109 -3.1276
14 109 -3.1276
15 109 -3.1276
16 109 -3.1276
17 109 -3.1276
18 109 -3.1276
19 109 -3.1276
20 109 -3.1276
21 109 -3.1276
22 109 -3.1276
23 109 -3.1276
24 109 -3.1276
25 109 -3.1276
26 109 -3.1276
27 109 -3.1276
28 109 -3.1276
29 109 -3.1276
30 109 -3.1276
31 109 -3.1276
32 109 -3.1276
33 109 -3.1276
34 109 -3.1276
35 109 -3.1276
36 109 -3.1276
37 109 -3.1276
38 109 -3.1276
39 109 7.25754
40 109 12.6963
41 109 14.9133
42 109 16.7146
43 109 18.219
44 109 19.4055
45 109 20.324
46 109 21.0676
47 109 21.7099
48 109 22.1457
49 109 22.4262
50 109 22.6587
51 109 22.7616
52 109 22.8003
53 109 22.8542
54 109 22.8682
55 109 22.8862
56 109 22.9107
57 109 22.9024
58 109 22.8582
59 109 22.8306
60 109 22.7927
61 109 22.7525
62 109 22.7002
63 109 22.6515
64 109 22.6122
65 109 22.5494
66 109 22.4937
67 109 22.4146
68 109 22.3177
69 109 22.2086
70 109 22.0805
71 109 21.9191
72 109 21.7351
73 109 21.5248
74 109 21.2665
75 109 20.9907
76 109 20.6585
77 109 20.2845
78 109 19.8094
79 109 19.1737
80 109 18.4109
81 109 17.5592
82 109 16.6123
83 109 15.5231
84 109 14.3134
85 109 12.9594
86 109 11.467
87 109 9.78692
88 109 7.84986
89 109 5.63767
90 109 2.58526
91 109 -3.1276
92 109 -3.1276
93 109 -3.1276
94 109 -3.1276
95 109 -3.1276
96 109 -3.1276
97 109 -3.1276
98 109 -3.1276
99 109 -3.1276
100 109 -3.1276
101 109 -3.1276
102 109 -3.1276
103 109 -3.1276
104 109 -3.1276
105 109 -3.1276
106 109 -3.1276
107 109 -3.1276
108 109 -3.1276
109 109 -3.1276
110 109 -3.1276
111 109 -3.1276
112 109 -3.1276
113 109 -3.1276
114 109 -3.1276
115 109 -3.1276
116 109 -3.1276
117 109 -3.1276
118 109 -3.1276
119 109 -3.1276
0 110 -3.1276
1 110 -3.1276
2 110 -3.1276
3 110 -3.1276
4 110 -3.1276
5 110 -3.1276
6 110 -3.1276
7 110 -3.1276
8 110 -3.1276
9 110 -3.1276
10 110 -3.1276
11 110 -3.1276
12 110 -3.1276
13 110 -3.1276
14 110 -3.1276
15 110 -3.1276
16 110 -3.1276
17 110 -3.1276
18 110 -3.1276
19 110 -3.1276
20 110 -3.1276
21 110 -3.1276
22 110 -3.1276
23 110 -3.1276
24 110 -3.1276
25 110 -3.1276
26 110 -3.1276
27 110 -3.1276
28 110 -3.1276
29 110 -3.1276
30 110 -3.1276
31 110 -3.1276
32 110 -3.1276
33 110 -3.1276
34 110 -3.1276
35 110 -3.1276
36 110 -3.1276
37 110 -3.1276
38 110 -3.1276
39 110 9.87475
40 110 13.6339
41 110 15.3762
42 110 16.9401
43 110 18.2844
44 110 19.3663
45 110 20.2322
46 110 20.9789
47 110 21.6169
48 110 22.0313
49 110 22.3669
50 110 22.5927
51 110 22.6999
52 110 22.7184
53 110 22.7677
54 110 22.779
55 110 22.8048
56 110 22.8058
57 110 22.7756
58 110 22.7307
59 110 22.7185
60 110 22.707
61 110 22.6697
62 110 22.6452
63 110 22.6115
64 110 22.5635
65 110 22.5063
66 110 22.4598
67 110 22.3681
68 110 22.2751
69 110 22.1539
70 110 22.0104
71 110 21.835
72 110 21.6549
73 110 21.4192
74 110 21.1597
75 110 20.8856
76 110 20.568
77 110 20.2245
78 110 19.7513
79 110 19.1435
80 110 18.4029
81 110 17.5794
82 110 16.6587
83 110 15.6179
84 110 14.4818
85 110 13.1935
86 110 11.8007
87 110 10.2745
88 110 8.53706
89 110 6.58888
90 110 3.90185
91 110 -3.1276
92 110 -3.1276
93 110 -3.1276
94 110 -3.1276
95 110 -3.1276
96 110 -3.1276
97 110 -3.1276
98 110 -3.1276
99 110 -3.1276
100 110 -3.1276
101 110 -3.1276
102 110 -3.1276
103 110 -3.1276
104 110 -3.1276
105 110 -3.1276
106 110 -3.1276
107 110 -3.1276
108 110 -3.1276
109 110 -3.1276
110 110 -3.1276
111 110 -3.1276
112 110 -3.1276
113 110 -3.1276
114 110 -3.1276
115 110 -3.1276
116 110 -3.1276
117 110 -3.1276
118 110 -3.1276
119 110 -3.1276
0 111 -3.1276
1 111 -3.1276
2 111 -3.1276
3 111 -3.1276
4 111 -3.1276
5 111 -3.1276
6 111 -3.1276
7 111 -3.1276
8 111 -3.1276
9 111 -3.1276
10 111 -3.1276
11 111 -3.1276
12 111 -3.1276
13 111 -3.1276
14 111 -3.1276
15 111 -3.1276
16 111 -3.1276
17 111 -3.1276
18 111 -3.1276
19 111 -3.1276
20 111 -3.1276
21 111 -3.1276
22 111 -3.1276
23 111 -3.1276
24 111 -3.1276
25 111 -3.1276
26 111 -3.1276
27 111 -3.1276
28 111 -3.1276
29 111 -3.1276
30 111 -3.1276
31 111 -3.1276
32 111 -3.1276
33 111 -3.1276
34 111 -3.1276
35 111 -3.1276
36 111 -3.1276
37 111 -3.1276
38 111 -3.1276
39 111 10.1786
40 111 13.6458
41 111 15.4323
42 111 16.9372
43 111 18.2099
44 111 19.2611
45 111 20.1441
46 111 20.8428
47 111 21.477
48 111 21.9857
49 111 22.3419
50 111 22.5913
51 111 22.6995
52 111 22.7054
53 111 22.7446
54 111 22.7594
55 111 22.7752
56 111 22.7513
57 111 22.7157
58 111 22.6429
59 111 22.6105
60 111 22.5668
61 111 22.5715
62 111 22.55
63 111 22.5185
64 111 22.4765
65 111 22.426
66 111 22.3637
67 111 22.306
68 111 22.2046
69 111 22.0772
70 111 21.9222
71 111 21.7536
72 111 21.5533
73 111 21.3356
74 111 21.0801
75 111 20.8023
76 111 20.4948
77 111 20.1535
78 111 19.7099
79 111 19.106
80 111 18.3826
81 111 17.6027
82 111 16.7158
83 111 15.7278
84 111 14.6448
85 111 13.4398
86 111 12.1465
87 111 10.757
88 111 9.2339
89 111 7.65574
90 111 6.07336
91 111 5.32612
92 111 -3.1276
93 111 -3.1276
94 111 -3.1276
95 111 -3.1276
96 111 -3.1276
97 111 -3.1276
98 111 -3.1276
99 111 -3.1276
100 111 -3.1276
101 111 -3.1276
102 111 -3.1276
103 111 -3.1276
104 111 -3.1276
105 111 -3.1276
106 111 -3.1276
107 111 -3.1276
108 111 -3.1276
109 111 -3.1276
110 111 -3.1276
111 111 -3.1276
112 111 -3.1276
113 111 -3.1276
114 111 -3.1276
115 111 -3.1276
116 111 -3.1276
117 111 -3.1276
118 111 -3.1276
119 111 -3.1276
0 112 -3.1276
1 112 -3.1276
2 112 -3.1276
3 112 -3.1276
4 112 -3.1276
5 112 -3.1276
6 112 -3.1276
7 112 -3.1276
8 112 -3.1276
9 112 -3.1276
10 112 -3.1276
11 112 -3.1276
12 112 -3.1276
13 112 -3.1276
14 112 -3.1276
15 112 -3.1276
16 112 -3.1276
17 112 -3.1276
18 112 -3.1276
19 112 -3.1276
20 112 -3.1276
21 112 -3.1276
22 112 -3.1276
23 112 -3.1276
24 112 -3.1276
25 112 -3.1276
26 112 -3.1276
27 112 -3.1276
28 112 -3.1276
29 112 -3.1276
30 112 -3.1276
31 112 -3.1276
32 112 -3.1276
33 112 -3.1276
34 112 -3.1276
35 112 -3.1276
36 112 -3.1276
37 112 -3.1276
38 112 1.71865
39 112 9.757
40 112 13.2989
41 112 15.2318
42 112 16.8085
43 112 18.0969
44 112 19.1218
45 112 19.986
46 112 20.7385
47 112 21.4371
48 112 22.003
49 112 22.4229
50 112 22.6705
51 112 22.7731
52 112 22.7768
53 112 22.8085
54 112 22.8171
55 112 22.8149
56 112 22.7735
57 112 22.6975
58 112 22.6186
59 112 22.5566
60 112 22.4936
61 112 22.453
62 112 22.4171
63 112 22.3994
64 112 22.374
65 112 22.3209
66 112 22.2706
67 112 22.1954
68 112 22.102
69 112 21.9761
70 112 21.8195
71 112 21.6586
72 112 21.4774
73 112 21.2607
74 112 21.0026
75 112 20.7154
76 112 20.4176
77 112 20.0986
78 112 19.6777
79 112 19.0955
80 112 18.3902
81 112 17.6447
82 112 16.795
83 112 15.8559
84 112 14.8182
85 112 13.6741
86 112 12.459
87 112 11.1327
88 112 9.7615
89 112 8.33213
90 112 6.69511
91 112 4.85014
92 112 -3.1276
93 112 -3.1276
94 112 -3.1276
95 112 -3.1276
96 112 -3.1276
97 112 -3.1276
98 112 -3.1276
99 112 -3.1276
100 112 -3.1276
101 112 -3.1276
102 112 -3.1276
103 112 -3.1276
104 112 -3.1276
105 112 -3.1276
106 112 -3.1276
107 112 -3.1276
108 112 -3.1276
109 112 -3.1276
110 112 -3.1276
111 112 -3.1276
112 112 -3.1276
113 112 -3.1276
114 112 -3.1276
115 112 -3.1276
116 112 -3.1276
117 112 -3.1276
118 112 -3.1276
119 112 -3.1276
0 113 -3.1276
1 113 -3.1276
2 113 -3.1276
3 113 -3.1276
4 113 -3.1276
5 113 -3.1276
6 113 -3.1276
7 113 -3.1276
8 113 -3.1276
9 113 -3.1276
10 113 -3.1276
11 113 -3.1276
12 113 -3.1276
13 113 -3.1276
14 113 -3.1276
15 113 -3.1276
16 113 -3.1276
17 113 -3.1276
18 113 -3.1276
19 113 -3.1276
20 113 -3.1276
21 113 -3.1276
22 113 -3.1276
23 113 -3.1276
24 113 -3.1276
25 113 -3.1276
26 113 -3.1276
27 113 -3.1276
28 113 -3.1276
29 113 -3.1276
30 113 -3.1276
31 113 -3.1276
32 113 -3.1276
33 113 -3.1276
34 113 -3.1276
35 113 -3.1276
36 113 -3.1276
37 113 -3.1276
38 113 3.7453
39 113 9.78013
40 113 13.1141
41 113 15.1184
42 113 16.7149
43 113 17.9819
44 113 19.0896
45 113 20.0336
46 113 20.8629
47 113 21.5738
48 113 22.1726
49 113 22.6101
50 113 22.8631
51 113 22.9305
52 113 22.9376
53 113 22.945
54 113 22.9435
55 113 22.8836
56 113 22.8121
57 113 22.709
58 113 22.6081
59 113 22.5177
60 113 22.4396
61 113 22.3676
62 113 22.3122
63 113 22.2902
64 113 22.236
65 113 22.1947
66 113 22.1426
67 113 22.0726
68 113 21.9872
69 113 21.8757
70 113 21.7301
71 113 21.5583
72 113 21.3634
73 113 21.161
74 113 20.9253
75 113 20.6614
76 113 20.373
77 113 20.0578
78 113 19.6394
79 113 19.0935
80 113 18.4067
81 113 17.6723
82 113 16.8757
83 113 15.9746
84 113 14.9804
85 113 13.9105
86 113 12.74
87 113 11.5032
88 113 10.2045
89 113 8.84193
90 113 7.15919
91 113 4.72619
92 113 -3.1276
93 113 -3.1276
94 113 -3.1276
95 113 -3.1276
96 113 -3.1276
97 113 -3.1276
98 113 -3.1276
99 113 -3.1276
100 113 -3.1276
101 113 -3.1276
102 113 -3.1276
103 113 -3.1276
104 113 -3.1276
105 113 -3.1276
106 113 -3.1276
107 113 -3.1276
108 113 -3.1276
109 113 -3.1276
110 113 -3.1276
111 113 -3.1276
112 113 -3.1276
113 113 -3.1276
114 113 -3.1276
115 113 -3.1276
116 113 -3.1276
117 113 -3.1276
118 113 -3.1276
119 113 -3.1276
0 114 -3.1276
1 114 -3.1276
2 114 -3.1276
3 114 -3.1276
4 114 -3.1276
5 114 -3.1276
6 114 -3.1276
7 114 -3.1276
8 114 -3.1276
9 114 -3.1276
10 114 -3.1276
11 114 -3.1276
12 114 -3.1276
13 114 -3.1276
14 114 -3.1276
15 114 -3.1276
16 114 -3.1276
17 114 -3.1276
18 114 -3.1276
19 114 -3.1276
20 114 -3.1276
21 114 -3.1276
22 114 -3.1276
23 114 -3.1276
24 114 -3.1276
25 114 -3.1276
26 114 -3.1276
27 114 -3.1276
28 114 -3.1276
29 114 -3.1276
30 114 -3.1276
31 114 -3.1276
32 114 -3.1276
33 114 -3.1276
34 114 -3.1276
35 114 -3.1276
36 114 -3.1276
37 114 0.471259
38 114 7.29476
39 114 10.6565
40 114 13.3574
41 114 15.2488
42 114 16.839
43 114 18.2056
44 114 19.342
45 114 20.3405
46 114 21.1765
47 114 21.8869
48 114 22.4324
49 114 22.8862
50 114 23.1378
51 114 23.1851
52 114 23.1861
53 114 23.1519
54 114 23.1238
55 114 23.0331
56 114 22.9109
57 114 22.779
58 114 22.6433
59 114 22.5409
60 114 22.4457
61 114 22.3538
62 114 22.2689
63 114 22.1984
64 114 22.1388
65 114 22.0963
66 114 22.0157
67 114 21.9505
68 114 21.8652
69 114 21.7575
70 114 21.631
71 114 21.4768
72 114 21.2991
73 114 21.1051
74 114 20.8618
75 114 20.6072
76 114 20.3158
77 114 20.0091
78 114 19.6079
79 114 19.0737
80 114 18.4293
81 114 17.7399
82 114 16.9619
83 114 16.1223
84 114 15.1648
85 114 14.1541
86 114 13.0476
87 114 11.8493
88 114 10.5743
89 114 9.33976
90 114 7.92383
91 114 6.28853
92 114 4.32098
93 114 -3.1276
94 114 -3.1276
95 114 -3.1276
96 114 -3.1276
97 114 -3.1276
98 114 -3.1276
99 114 -3.1276
100 114 -3.1276
101 114 -3.1276
102 114 -3.1276
103 114 -3.1276
104 114 -3.1276
105 114 -3.1276
106 114 -3.1276
107 114 -3.1276
108 114 -3.1276
109 114 -3.1276
110 114 -3.1276
111 114 -3.1276
112 114 -3.1276
113 114 -3.1276
114 114 -3.1276
115 114 -3.1276
116 114 -3.1276
117 114 -3.1276
118 114 -3.1276
119 114 -3.1276
0 115 -3.1276
1 115 -3.1276
2 115 -3.1276
3 115 -3.1276
4 115 -3.1276
5 115 -3.1276
6 115 -3.1276
7 115 -3.1276
8 115 -3.1276
9 115 -3.1276
10 115 -3.1276
11 115 -3.1276
12 115 -3.1276
13 115 -3.1276
14 115 -3.1276
15 115 -3.1276
16 115 -3.1276
17 115 -3.1276
18 115 -3.1276
19 115 -3.1276
20 115 -3.1276
21 115 -3.1276
22 115 -3.1276
23 115 -3.1276
24 115 -3.1276
25 115 -3.1276
26 115 -3.1276
27 115 -3.1276
28 115 -3.1276
29 115 -3.1276
30 115 -3.1276
31 115 -3.1276
32 115 -3.1276
33 115 -3.1276
34 115 -3.1276
35 115 -3.1276
36 115 -3.1276
37 115 2.82317
38 115 8.50213
39 115 11.4539
40 115 13.8436
41 115 15.7652
42 115 17.4098
43 115 18.7725
44 115 19.9664
45 115 20.9516
46 115 21.7775
47 115 22.4348
48 115 22.9194
49 115 23.3086
50 115 23.546
51 115 23.5785
52 115 23.5253
53 115 23.4656
54 115 23.3633
55 115 23.2451
56 115 23.056
57 115 22.8894
58 115 22.7366
59 115 22.5929
60 115 22.488
61 115 22.3645
62 115 22.272
63 115 22.1814
64 115 22.0917
65 115 21.9922
66 115 21.9061
67 115 21.8131
68 115 21.7516
69 115 21.6619
70 115 21.5494
71 115 21.4119
72 115 21.2346
73 115 21.0418
74 115 20.8182
75 115 20.5599
76 115 20.2786
77 115 19.9808
78 115 19.6066
79 115 19.1019
80 115 18.4818
81 115 17.8092
82 115 17.0525
83 115 16.2328
84 115 15.3572
85 115 14.396
86 115 13.3291
87 115 12.1568
88 115 10.9218
89 115 9.72576
90 115 8.46037
91 115 7.28295
92 115 6.69214
93 115 -3.1276
94 115 -3.1276
95 115 -3.1276
96 115 -3.1276
97 115 -3.1276
98 115 -3.1276
99 115 -3.1276
100 115 -3.1276
101 115 -3.1276
102 115 -3.1276
103 115 -3.1276
104 115 -3.1276
105 115 -3.1276
106 115 -3.1276
107 115 -3.1276
108 115 -3.1276
109 115 -3.1276
110 115 -3.1276
111 115 -3.1276
112 115 -3.1276
113 115 -3.1276
114 115 -3.1276
115 115 -3.1276
116 115 -3.1276
117 115 -3.1276
118 115 -3.1276
119 115 -3.1276
0 116 -3.1276
1 116 -3.1276
2 116 -3.1276
3 116 -3.1276
4 116 -3.1276
5 116 -3.1276
6 116 -3.1276
7 116 -3.1276
8 116 -3.1276
9 116 -3.1276
10 116 -3.1276
11 116 -3.1276
12 116 -3.1276
13 116 -3.1276
14 116 -3.1276
15 116 -3.1276
16 116 -3.1276
17 116 -3.1276
18 116 -3.1276
19 116 -3.1276
20 116 -3.1276
21 116 -3.1276
22 116 -3.1276
23 116 -3.1276
24 116 -3.1276
25 116 -3.1276
26 116 -3.1276
27 116 -3.1276
28 116 -3.1276
29 116 -3.1276
30 116 -3.1276
31 116 -3.1276
32 116 -3.1276
33 116 -3.1276
34 116 -3.1276
35 116 -3.1276
36 116 -0.73576
37 116 6.79545
38 116 9.93056
39 116 12.362
40 116 14.5968
41 116 16.5649
42 116 18.3269
43 116 19.7627
44 116 20.951
45 116 21.9598
46 116 22.692
47 116 23.2621
48 116 23.6799
49 116 23.9408
50 116 24.1214
51 116 24.0857
52 116 23.9963
53 116 23.8544
54 116 23.6872
55 116 23.5269
56 116 23.2899
57 116 23.0721
58 116 22.8898
59 116 22.7084
60 116 22.5487
61 116 22.4231
62 116 22.3018
63 116 22.158
64 116 22.0354
65 116 21.9441
66 116 21.853
67 116 21.7523
68 116 21.6766
69 116 21.5925
70 116 21.4785
71 116 21.3376
72 116 21.177
73 116 20.9931
74 116 20.7874
75 116 20.5305
76 116 20.2502
77 116 19.9529
78 116 19.6113
79 116 19.1057
80 116 18.5184
81 116 17.8669
82 116 17.1447
83 116 16.355
84 116 15.5357
85 116 14.6136
86 116 13.5983
87 116 12.4591
88 116 11.2349
89 116 10.0045
90 116 8.62708
91 116 7.09225
92 116 5.36365
93 116 -3.1276
94 116 -3.1276
95 116 -3.1276
96 116 -3.1276
97 116 -3.1276
98 116 -3.1276
99 116 -3.1276
100 116 -3.1276
101 116 -3.1276
102 116 -3.1276
103 116 -3.1276
104 116 -3.1276
105 116 -3.1276
106 116 -3.1276
107 116 -3.1276
108 116 -3.1276
109 116 -3.1276
110 116 -3.1276
111 116 -3.1276
112 116 -3.1276
113 116 -3.1276
114 116 -3.1276
115 116 -3.1276
116 116 -3.1276
117 116 -3.1276
118 116 -3.1276
119 116 -3.1276
0 117 -3.1276
1 117 -3.1276
2 117 -3.1276
3 117 -3.1276
4 117 -3.1276
5 117 -3.1276
6 117 -3.1276
7 117 -3.1276
8 117 -3.1276
9 117 -3.1276
10 117 -3.1276
11 117 -3.1276
12 117 -3.1276
13 117 -3.1276
14 117 -3.1276
15 117 -3.1276
16 117 -3.1276
17 117 -3.1276
18 117 -3.1276
19 117 -3.1276
20 117 -3.1276
21 117 -3.1276
22 117 -3.1276
23 117 -3.1276
24 117 -3.1276
25 117 -3.1276
26 117 -3.1276
27 117 -3.1276
28 117 -3.1276
29 117 -3.1276
30 117 -3.1276
31 117 -3.1276
32 117 -3.1276
33 117 -3.1276
34 117 -3.1276
35 117 -3.1276
36 117 0.863053
37 117 7.76262
38 117 10.8307
39 117 13.3048
40 117 15.6411
41 117 17.6495
42 117 19.3399
43 117 20.9764
44 117 22.301
45 117 23.1358
46 117 23.7476
47 117 24.2367
48 117 24.5436
49 117 24.7128
50 117 24.8092
51 117 24.7197
52 117 24.5265
53 117 24.3295
54 117 24.0995
55 117 23.8668
56 117 23.5942
57 117 23.3266
58 117 23.0866
59 117 22.8711
60 117 22.6895
61 117 22.478
62 117 22.3181
63 117 22.1726
64 117 22.0588
65 117 21.9518
66 117 21.8312
67 117 21.7231
68 117 21.6285
69 117 21.5272
70 117 21.4173
71 117 21.2921
72 117 21.1287
73 117 20.9512
74 117 20.7462
75 117 20.515
76 117 20.2555
77 117 19.9599
78 117 19.611
79 117 19.1428
80 117 18.564
81 117 17.9436
82 117 17.2349
83 117 16.4882
84 117 15.7041
85 117 14.8428
86 117 13.8722
87 117 12.7573
88 117 11.5297
89 117 10.2394
90 117 8.72728
91 117 6.76932
92 117 4.54679
93 117 -3.1276
94 117 -3.1276
95 117 -3.1276
96 117 -3.1276
97 117 -3.1276
98 117 -3.1276
99 117 -3.1276
100 117 -3.1276
101 117 -3.1276
102 117 -3.1276
103 117 -3.1276
104 117 -3.1276
105 117 -3.1276
106 117 -3.1276
107 117 -3.1276
108 117 -3.1276
109 117 -3.1276
110 117 -3.1276
111 117 -3.1276
112 117 -3.1276
113 117 -3.1276
114 117 -3.1276
115 117 -3.1276
116 117 -3.1276
117 117 -3.1276
118 117 -3.1276
119 117 -3.1276
0 118 -3.1276
1 118 -3.1276
2 118 -3.1276
3 118 -3.1276
4 118 -3.1276
5 118 -3.1276
6 118 -3.1276
7 118 -3.1276
8 118 -3.1276
9 118 -3.1276
10 118 -3.1276
11 118 -3.1276
12 118 -3.1276
13 118 -3.1276
14 118 -3.1276
15 118 -3.1276
16 118 -3.1276
17 118 -3.1276
18 118 -3.1276
19 118 -3.1276
20 118 -3.1276
21 118 -3.1276
22 118 -3.1276
23 118 -3.1276
24 118 -3.1276
25 118 -3.1276
26 118 -3.1276
27 118 -3.1276
28 118 -3.1276
29 118 -3.1276
30 118 -3.1276
31 118 -3.1276
32 118 -3.1276
33 118 -3.1276
34 118 -3.1276
35 118 -3.1276
36 118 3.1205
37 118 8.79001
38 118 11.8306
39 118 14.4792
40 118 16.71
41 118 18.9574
42 118 20.9958
43 118 22.2713
44 118 23.1733
45 118 23.904
46 118 24.456
47 118 24.9101
48 118 25.2102
49 118 25.3645
50 118 25.4207
51 118 25.3218
52 118 25.1449
53 118 24.878
54 118 24.5595
55 118 24.25
56 118 23.9159
57 118 23.6092
58 118 23.3166
59 118 23.0354
60 118 22.813
61 118 22.5961
62 118 22.4099
63 118 22.2524
64 118 22.1145
65 118 21.9801
66 118 21.8295
67 118 21.7041
68 118 21.6071
69 118 21.5008
70 118 21.3968
71 118 21.2638
72 118 21.11
73 118 20.9423
74 118 20.7436
75 118 20.5068
76 118 20.2463
77 118 19.9611
78 118 19.6316
79 118 19.1711
80 118 18.6355
81 118 18.0354
82 118 17.3545
83 118 16.6222
84 118 15.8872
85 118 15.0751
86 118 14.147
87 118 13.0579
88 118 11.8334
89 118 10.5006
90 118 8.83781
91 118 6.68008
92 118 4.12632
93 118 -3.1276
94 118 -3.1276
95 118 -3.1276
96 118 -3.1276
97 118 -3.1276
98 118 -3.1276
99 118 -3.1276
100 118 -3.1276
101 118 -3.1276
102 118 -3.1276
103 118 -3.1276
104 118 -3.1276
105 118 -3.1276
106 118 -3.1276
107 118 -3.1276
108 118 -3.1276
109 118 -3.1276
110 118 -3.1276
111 118 -3.1276
112 118 -3.1276
113 118 -3.1276
114 118 -3.1276
115 118 -3.1276
116 118 -3.1276
117 118 -3.1276
118 118 -3.1276
119 118 -3.1276
0 119 -3.1276
1 119 -3.1276
2 119 -3.1276
3 119 -3.1276
4 119 -3.1276
5 119 -3.1276
6 119 -3.1276
7 119 -3.1276
8 119 -3.1276
9 119 -3.1276
10 119 -3.1276
11 119 -3.1276
12 119 -3.1276
13 119 -3.1276
14 119 -3.1276
15 119 -3.1276
16 119 -3.1276
17 119 -3.1276
18 119 -3.1276
19 119 -3.1276
20 119 -3.1276
21 119 -3.1276
22 119 -3.1276
23 119 -3.1276
24 119 -3.1276
25 119 -3.1276
26 119 -3.1276
27 119 -3.1276
28 119 -3.1276
29 119 -3.1276
30 119 -3.1276
31 119 -3.1276
32 119 -3.1276
33 119 -3.1276
34 119 -3.1276
35 119 0.0979748
36 119 7.17893
37 119 10.5276
38 119 13.094
39 119 15.7452
40 119 18.484
41 119 20.6325
42 119 21.9879
43 119 23.1011
44 119 23.9453
45 119 24.6423
46 119 25.1577
47 119 25.5477
48 119 25.8176
49 119 25.9805
50 119 25.9936
51 119 25.8897
52 119 25.6723
53 119 25.4059
54 119 25.0927
55 119 24.7107
56 119 24.2758
57 119 23.8876
58 119 23.5508
59 119 23.2554
60 119 23.0174
61 119 22.7413
62 119 22.5577
63 119 22.3764
64 119 22.1974
65 119 22.0246
66 119 21.8655
67 119 21.7199
68 119 21.6083
69 119 21.4985
70 119 21.3885
71 119 21.238
72 119 21.0976
73 119 20.9209
74 119 20.7285
75 119 20.505
76 119 20.2609
77 119 19.9796
78 119 19.67
79 119 19.2237
80 119 18.7012
81 119 18.1159
82 119 17.4638
83 119 16.7883
84 119 16.0824
85 119 15.3318
86 119 14.4419
87 119 13.4121
88 119 12.2008
89 119 10.8521
90 119 9.13988
91 119 6.84806
92 119 3.86175
93 119 -3.1276
94 119 -3.1276
95 119 -3.1276
96 119 -3.1276
97 119 -3.1276
98 119 -3.1276
99 119 -3.1276
100 119 -3.1276
101 119 -3.1276
102 119 -3.1276
103 119 -3.1276
104 119 -3.1276
105 119 -3.1276
106 119 -3.1276
107 119 -3.1276
108 119 -3.1276
109 119 -3.1276
110 119 -3.1276
111 119 -3.1276
112 119 -3.1276
113 119 -3.1276
114 119 -3.1276
115 119 -3.1276
116 119 -3.1276
117 119 -3.1276
118 119 -3.1276
119 119 -3.1276
0 120 -3.1276
1 120 -3.1276
2 120 -3.1276
3 120 -3.1276
4 120 -3.1276
5 120 -3.1276
6 120 -3.1276
7 120 -3.1276
8 120 -3.1276
9 120 -3.1276
10 120 -3.1276
11 120 -3.1276
12 120 -3.1276
13 120 -3.1276
14 120 -3.1276
15 120 -3.1276
16 120 -3.1276
17 120 -3.1276
18 120 -3.1276
19 120 -3.1276
20 120 -3.1276
21 120 -3.1276
22 120 -3.1276
23 120 -3.1276
24 120 -3.1276
25 120 -3.1276
26 120 -3.1276
27 120 -3.1276
28 120 -3.1276
29 120 -3.1276
30 120 -3.1276
31 120 -3.1276
32 120 -3.1276
33 120 -3.1276
34 120 -3.1276
35 120 2.96244
36 120 8.82191
37 120 11.3501
38 120 14.6025
39 120 17.7828
40 120 20.0663
41 120 21.7019
42 120 22.9824
43 120 23.8848
44 120 24.6581
45 120 25.2794
46 120 25.7743
47 120 26.144
48 120 26.3824
49 120 26.5236
50 120 26.5099
51 120 26.3935
52 120 26.1465
53 120 25.8545
54 120 25.4809
55 120 25.0726
56 120 24.644
57 120 24.2159
58 120 23.8332
59 120 23.5039
60 120 23.2113
61 120 22.9271
62 120 22.7066
63 120 22.4993
64 120 22.2866
65 120 22.1138
66 120 21.9296
67 120 21.7774
68 120 21.6409
69 120 21.527
70 120 21.3977
71 120 21.2699
72 120 21.1057
73 120 20.9329
74 120 20.7461
75 120 20.5358
76 120 20.2881
77 120 20.0117
78 120 19.7046
79 120 19.2769
80 120 18.7992
81 120 18.2404
82 120 17.6544
83 120 16.9866
84 120 16.3042
85 120 15.5796
86 120 14.7677
87 120 13.7987
88 120 12.6463
89 120 11.3398
90 120 9.65141
91 120 7.33197
92 120 4.00808
93 120 -3.1276
94 120 -3.1276
95 120 -3.1276
96 120 -3.1276
97 120 -3.1276
98 120 -3.1276
99 120 -3.1276
100 120 -3.1276
101 120 -3.1276
102 120 -3.1276
103 120 -3.1276
104 120 -3.1276
105 120 -3.1276
106 120 -3.1276
107 120 -3.1276
108 120 -3.1276
109 120 -3.1276
110 120 -3.1276
111 120 -3.1276
112 120 -3.1276
113 120 -3.1276
114 120 -3.1276
115 120 -3.1276
116 120 -3.1276
117 120 -3.1276
118 120 -3.1276
119 120 -3.1276
0 121 -3.1276
1 121 -3.1276
2 121 -3.1276
3 121 -3.1276
4 121 -3.1276
5 121 -3.1276
6 121 -3.1276
7 121 -3.1276
8 121 -3.1276
9 121 -3.1276
10 121 -3.1276
11 121 -3.1276
12 121 -3.1276
13 121 -3.1276
14 121 -3.1276
15 121 -3.1276
16 121 -3.1276
17 121 -3.1276
18 121 -3.1276
19 121 -3.1276
20 121 -3.1276
21 121 -3.1276
22 121 -3.1276
23 121 -3.1276
24 121 -3.1276
25 121 -3.1276
26 121 -3.1276
27 121 -3.1276
28 121 -3.1276
29 121 -3.1276
30 121 -3.1276
31 121 -3.1276
32 121 -3.1276
33 121 -3.1276
34 121 -3.1276
35 121 9.3083
36 121 10.4209
37 121 12.9083
38 121 16.6942
39 121 19.5482
40 121 21.6289
41 121 22.9423
42 121 24.0017
43 121 24.8175
44 121 25.4851
45 121 26.0045
46 121 26.4265
47 121 26.7402
48 121 26.9201
49 121 27.0023
50 121 26.9932
51 121 26.8398
52 121 26.578
53 121 26.2413
54 121 25.8259
55 121 25.4222
56 121 25.0195
57 121 24.5713
58 121 24.1322
59 121 23.7702
60 121 23.4462
61 121 23.1538
62 121 22.8977
63 121 22.6524
64 121 22.4208
65 121 22.2273
66 121 22.0405
67 121 21.8818
68 121 21.714
69 121 21.5964
70 121 21.4584
71 121 21.3139
72 121 21.1441
73 121 20.9703
74 121 20.7759
75 121 20.5632
76 121 20.324
77 121 20.0757
78 121 19.7749
79 121 19.3805
80 121 18.9263
81 121 18.4273
82 121 17.873
83 121 17.2509
84 121 16.577
85 121 15.8804
86 121 15.1249
87 121 14.2332
88 121 13.1783
89 121 11.9724
90 121 10.367
91 121 8.22024
92 121 4.77332
93 121 -3.1276
94 121 -3.1276
95 121 -3.1276
96 121 -3.1276
97 121 -3.1276
98 121 -3.1276
99 121 -3.1276
100 121 -3.1276
101 121 -3.1276
102 121 -3.1276
103 121 -3.1276
104 121 -3.1276
105 121 -3.1276
106 121 -3.1276
107 121 -3.1276
108 121 -3.1276
109 121 -3.1276
110 121 -3.1276
111 121 -3.1276
112 121 -3.1276
113 121 -3.1276
114 121 -3.1276
115 121 -3.1276
116 121 -3.1276
117 121 -3.1276
118 121 -3.1276
119 121 -3.1276
0 122 -3.1276
1 122 -3.1276
2 122 -3.1276
3 122 -3.1276
4 122 -3.1276
5 122 -3.1276
6 122 -3.1276
7 122 -3.1276
8 122 -3.1276
9 122 -3.1276
10 122 -3.1276
11 122 -3.1276
12 122 -3.1276
13 122 -3.1276
14 122 -3.1276
15 122 -3.1276
16 122 -3.1276
17 122 -3.1276
18 122 -3.1276
19 122 -3.1276
20 122 -3.1276
21 122 -3.1276
22 122 -3.1276
23 122 -3.1276
24 122 -3.1276
25 122 -3.1276
26 122 -3.1276
27 122 -3.1276
28 122 -3.1276
29 122 -3.1276
30 122 -3.1276
31 122 -3.1276
32 122 -3.1276
33 122 -3.1276
34 122 0.816032
35 122 8.10771
36 122 10.6447
37 122 14.5377
38 122 18.4654
39 122 21.1586
40 122 22.9922
41 122 24.1463
42 122 25.0776
43 122 25.7544
44 122 26.2835
45 122 26.7532
46 122 27.1109
47 122 27.3679
48 122 27.505
49 122 27.5664
50 122 27.5251
51 122 27.3104
52 122 27.0086
53 122 26.6105
54 122 26.1872
55 122 25.7667
56 122 25.331
57 122 24.9137
58 122 24.4818
59 122 24.085
60 122 23.7238
61 122 23.3969
62 122 23.1014
63 122 22.8292
64 122 22.5831
65 122 22.3399
66 122 22.1488
67 122 21.9841
68 122 21.8271
69 122 21.6796
70 122 21.553
71 122 21.4052
72 122 21.2358
73 122 21.0374
74 122 20.8458
75 122 20.6227
76 122 20.3864
77 122 20.1439
78 122 19.8724
79 122 19.5057
80 122 19.1155
81 122 18.6674
82 122 18.1488
83 122 17.5568
84 122 16.9137
85 122 16.2316
86 122 15.5208
87 122 14.7033
88 122 13.7417
89 122 12.6451
90 122 11.2863
91 122 9.47513
92 122 6.83302
93 122 4.90866
94 122 -3.1276
95 122 -3.1276
96 122 -3.1276
97 122 -3.1276
98 122 -3.1276
99 122 -3.1276
100 122 -3.1276
101 122 -3.1276
102 122 -3.1276
103 122 -3.1276
104 122 -3.1276
105 122 -3.1276
106 122 -3.1276
107 122 -3.1276
108 122 -3.1276
109 122 -3.1276
110 122 -3.1276
111 122 -3.1276
112 122 -3.1276
113 122 -3.1276
114 122 -3.1276
115 122 -3.1276
116 122 -3.1276
117 122 -3.1276
118 122 -3.1276
119 122 -3.1276
0 123 -3.1276
1 123 -3.1276
2 123 -3.1276
3 123 -3.1276
4 123 -3.1276
5 123 -3.1276
6 123 -3.1276
7 123 -3.1276
8 123 -3.1276
9 123 -3.1276
10 123 -3.1276
11 123 -3.1276
12 123 -3.1276
13 123 -3.1276
14 123 -3.1276
15 123 -3.1276
16 123 -3.1276
17 123 -3.1276
18 123 -3.1276
19 123 -3.1276
20 123 -3.1276
21 123 -3.1276
22 123 -3.1276
23 123 -3.1276
24 123 -3.1276
25 123 -3.1276
26 123 -3.1276
27 123 -3.1276
28 123 -3.1276
29 123 -3.1276
30 123 -3.1276
31 123 -3.1276
32 123 -3.1276
33 123 -3.1276
34 123 2.61337
35 123 7.40189
36 123 11.9918
37 123 16.6816
38 123 20.0224
39 123 22.2601
40 123 23.7608
41 123 24.9518
42 123 25.8544
43 123 26.4958
44 123 27.0161
45 123 27.4035
46 123 27.7191
47 123 27.9355
48 123 28.0595
49 123 28.0921
50 123 28.0276
51 123 27.7887
52 123 27.4841
53 123 27.0655
54 123 26.5921
55 123 26.1472
56 123 25.6899
57 123 25.2511
58 123 24.821
59 123 24.4361
60 123 24.011
61 123 23.6476
62 123 23.3126
63 123 23.0257
64 123 22.7622
65 123 22.5166
66 123 22.2958
67 123 22.1161
68 123 21.9599
69 123 21.814
70 123 21.6814
71 123 21.5435
72 123 21.3781
73 123 21.1683
74 123 20.9649
75 123 20.7352
76 123 20.4983
77 123 20.2384
78 123 19.9801
79 123 19.7058
80 123 19.3721
81 123 18.9724
82 123 18.4968
83 123 17.9466
84 123 17.3095
85 123 16.6321
86 123 15.9397
87 123 15.1832
88 123 14.3196
89 123 13.3388
90 123 12.1407
91 123 10.589
92 123 8.05597
93 123 5.45363
94 123 -3.1276
95 123 -3.1276
96 123 -3.1276
97 123 -3.1276
98 123 -3.1276
99 123 -3.1276
100 123 -3.1276
101 123 -3.1276
102 123 -3.1276
103 123 -3.1276
104 123 -3.1276
105 123 -3.1276
106 123 -3.1276
107 123 -3.1276
108 123 -3.1276
109 123 -3.1276
110 123 -3.1276
111 123 -3.1276
112 123 -3.1276
113 123 -3.1276
114 123 -3.1276
115 123 -3.1276
116 123 -3.1276
117 123 -3.1276
118 123 -3.1276
119 123 -3.1276
0 124 -3.1276
1 124 -3.1276
2 124 -3.1276
3 124 -3.1276
4 124 -3.1276
5 124 -3.1276
6 124 -3.1276
7 124 -3.1276
8 124 -3.1276
9 124 -3.1276
10 124 -3.1276
11 124 -3.1276
12 124 -3.1276
13 124 -3.1276
14 124 -3.1276
15 124 -3.1276
16 124 -3.1276
17 124 -3.1276
18 124 -3.1276
19 124 -3.1276
20 124 -3.1276
21 124 -3.1276
22 124 -3.1276
23 124 -3.1276
24 124 -3.1276
25 124 -3.1276
26 124 -3.1276
27 124 -3.1276
28 124 -3.1276
29 124 -3.1276
30 124 -3.1276
31 124 -3.1276
32 124 -3.1276
33 124 2.26355
34 124 4.13039
35 124 8.88193
36 124 14.5358
37 124 18.4679
38 124 21.2281
39 124 22.9251
40 124 24.2143
41 124 25.3498
42 124 26.2393
43 124 26.9129
44 124 27.4684
45 124 27.9306
46 124 28.27
47 124 28.4908
48 124 28.5462
49 124 28.5712
50 124 28.4821
51 124 28.2831
52 124 27.9637
53 124 27.5654
54 124 27.0501
55 124 26.5501
56 124 26.0724
57 124 25.624
58 124 25.201
59 124 24.7525
60 124 24.3215
61 124 23.8828
62 124 23.5149
63 124 23.1991
64 124 22.9376
65 124 22.699
66 124 22.4907
67 124 22.3116
68 124 22.1416
69 124 22.0001
70 124 21.8713
71 124 21.687
72 124 21.5114
73 124 21.3044
74 124 21.0971
75 124 20.8722
76 124 20.6586
77 124 20.4374
78 124 20.2146
79 124 19.9892
80 124 19.6862
81 124 19.3445
82 124 18.9195
83 124 18.3907
84 124 17.7521
85 124 17.0799
86 124 16.3892
87 124 15.6971
88 124 14.8969
89 124 13.9916
90 124 12.9135
91 124 11.4138
92 124 8.85033
93 124 5.36092
94 124 -3.1276
95 124 -3.1276
96 124 -3.1276
97 124 -3.1276
98 124 -3.1276
99 124 -3.1276
100 124 -3.1276
101 124 -3.1276
102 124 -3.1276
103 124 -3.1276
104 124 -3.1276
105 124 -3.1276
106 124 -3.1276
107 124 -3.1276
108 124 -3.1276
109 124 -3.1276
110 124 -3.1276
111 124 -3.1276
112 124 -3.1276
113 124 -3.1276
114 124 -3.1276
115 124 -3.1276
116 124 -3.1276
117 124 -3.1276
118 124 -3.1276
119 124 -3.1276
0 125 -3.1276
1 125 -3.1276
2 125 -3.1276
3 125 -3.1276
4 125 -3.1276
5 125 -3.1276
6 125 -3.1276
7 125 -3.1276
8 125 -3.1276
9 125 -3.1276
10 125 -3.1276
11 125 -3.1276
12 125 -3.1276
13 125 -3.1276
14 125 -3.1276
15 125 -3.1276
16 125 -3.1276
17 125 -3.1276
18 125 -3.1276
19 125 -3.1276
20 125 -3.1276
21 125 -3.1276
22 125 -3.1276
23 125 -3.1276
24 125 -3.1276
25 125 -3.1276
26 125 -3.1276
27 125 -3.1276
28 125 -3.1276
29 125 -3.1276
30 125 -3.1276
31 125 -3.1276
32 125 -3.1276
33 125 2.20393
34 125 6.5099
35 125 11.931
36 125 16.4011
37 125 19.5869
38 125 21.7116
39 125 23.2945
40 125 24.5545
41 125 25.6179
42 125 26.4743
43 125 27.1414
44 125 27.7059
45 125 28.1501
46 125 28.5066
47 125 28.7915
48 125 28.9778
49 125 29.0298
50 125 28.9402
51 125 28.736
52 125 28.4212
53 125 28.0247
54 125 27.5283
55 125 26.9793
56 125 26.4712
57 125 26.015
58 125 25.5519
59 125 25.0892
60 125 24.6167
61 125 24.1278
62 125 23.7458
63 125 23.392
64 125 23.0678
65 125 22.8437
66 125 22.6696
67 125 22.5066
68 125 22.3718
69 125 22.2262
70 125 22.0934
71 125 21.9512
72 125 21.7886
73 125 21.5859
74 125 21.3796
75 125 21.1659
76 125 20.9449
77 125 20.7558
78 125 20.5645
79 125 20.3948
80 125 20.1628
81 125 19.8875
82 125 19.498
83 125 18.9819
84 125 18.2732
85 125 17.5903
86 125 16.8605
87 125 16.1699
88 125 15.4213
89 125 14.5738
90 125 13.5607
91 125 12.1954
92 125 9.67716
93 125 5.63158
94 125 -3.1276
95 125 -3.1276
96 125 -3.1276
97 125 -3.1276
98 125 -3.1276
99 125 -3.1276
100 125 -3.1276
101 125 -3.1276
102 125 -3.1276
103 125 -3.1276
104 125 -3.1276
105 125 -3.1276
106 125 -3.1276
107 125 -3.1276
108 125 -3.1276
109 125 -3.1276
110 125 -3.1276
111 125 -3.1276
112 125 -3.1276
113 125 -3.1276
114 125 -3.1276
115 125 -3.1276
116 125 -3.1276
117 125 -3.1276
118 125 -3.1276
119 125 -3.1276
0 126 -3.1276
1 126 -3.1276
2 126 -3.1276
3 126 -3.1276
4 126 -3.1276
5 126 -3.1276
6 126 -3.1276
7 126 -3.1276
8 126 -3.1276
9 126 -3.1276
10 126 -3.1276
11 126 -3.1276
12 126 -3.1276
13 126 -3.1276
14 126 -3.1276
15 126 -3.1276
16 126 -3.1276
17 126 -3.1276
18 126 -3.1276
19 126 -3.1276
20 126 -3.1276
21 126 -3.1276
22 126 -3.1276
23 126 -3.1276
24 126 -3.1276
25 126 -3.1276
26 126 -3.1276
27 126 -3.1276
28 126 -3.1276
29 126 -3.1276
30 126 -3.1276
31 126 -3.1276
32 126 4.87995
33 126 3.04773
34 126 9.51949
35 126 14.1668
36 126 17.6321
37 126 20.2787
38 126 22.1858
39 126 23.683
40 126 24.8956
41 126 25.825
42 126 26.6068
43 126 27.2441
44 126 27.8098
45 126 28.2825
46 126 28.6619
47 126 28.9709
48 126 29.2023
49 126 29.3171
50 126 29.2406
51 126 29.0649
52 126 28.7768
53 126 28.3958
54 126 27.9415
55 126 27.4084
56 126 26.9076
57 126 26.4247
58 126 25.9567
59 126 25.4591
60 126 24.9648
61 126 24.4396
62 126 23.9277
63 126 23.533
64 126 23.2418
65 126 23.0243
66 126 22.8567
67 126 22.7185
68 126 22.591
69 126 22.4678
70 126 22.3438
71 126 22.2128
72 126 22.0834
73 126 21.932
74 126 21.8057
75 126 21.6408
76 126 21.4701
77 126 21.2734
78 126 21.0888
79 126 20.9677
80 126 20.8025
81 126 20.5552
82 126 20.1465
83 126 19.6303
84 126 18.9704
85 126 18.1636
86 126 17.4102
87 126 16.662
88 126 15.9112
89 126 15.092
90 126 14.0997
91 126 12.7972
92 126 10.4494
93 126 5.85143
94 126 -3.1276
95 126 -3.1276
96 126 -3.1276
97 126 -3.1276
98 126 -3.1276
99 126 -3.1276
100 126 -3.1276
101 126 -3.1276
102 126 -3.1276
103 126 -3.1276
104 126 -3.1276
105 126 -3.1276
106 126 -3.1276
107 126 -3.1276
108 126 -3.1276
109 126 -3.1276
110 126 -3.1276
111 126 -3.1276
112 126 -3.1276
113 126 -3.1276
114 126 -3.1276
115 126 -3.1276
116 126 -3.1276
117 126 -3.1276
118 126 -3.1276
119 126 -3.1276
0 127 -3.1276
1 127 -3.1276
2 127 -3.1276
3 127 -3.1276
4 127 -3.1276
5 127 -3.1276
6 127 -3.1276
7 127 -3.1276
8 127 -3.1276
9 127 -3.1276
10 127 -3.1276
11 127 -3.1276
12 127 -3.1276
13 127 -3.1276
14 127 -3.1276
15 127 -3.1276
16 127 -3.1276
17 127 -3.1276
18 127 -3.1276
19 127 -3.1276
20 127 -3.1276
21 127 -3.1276
22 127 -3.1276
23 127 -3.1276
24 127 -3.1276
25 127 -3.1276
26 127 -3.1276
27 127 -3.1276
28 127 -3.1276
29 127 -3.1276
30 127 -3.1276
31 127 -3.1276
32 127 3.12216
33 127 6.64034
34 127 11.7608
35 127 15.8398
36 127 18.7193
37 127 20.9589
38 127 22.6569
39 127 24.0711
40 127 25.2115
41 127 26.0359
42 127 26.7144
43 127 27.3021
44 127 27.8447
45 127 28.306
46 127 28.7039
47 127 29.0302
48 127 29.2988
49 127 29.4365
50 127 29.4421
51 127 29.2728
52 127 29.0026
53 127 28.6363
54 127 28.2036
55 127 27.6901
56 127 27.204
57 127 26.7215
58 127 26.2385
59 127 25.7543
60 127 25.2293
61 127 24.6901
62 127 24.1329
63 127 23.7248
64 127 23.4338
65 127 23.1936
66 127 23.0113
67 127 22.91
68 127 22.8145
69 127 22.7063
70 127 22.6234
71 127 22.5212
72 127 22.4189
73 127 22.3119
74 127 22.1973
75 127 22.0961
76 127 21.9768
77 127 21.8454
78 127 21.7468
79 127 21.6153
80 127 21.4668
81 127 21.2238
82 127 20.8258
83 127 20.3377
84 127 19.6973
85 127 18.927
86 127 18.0375
87 127 17.2318
88 127 16.429
89 127 15.5555
90 127 14.5275
91 127 13.2696
92 127 11.0708
93 127 6.60606
94 127 -3.1276
95 127 -3.1276
96 127 -3.1276
97 127 -3.1276
98 127 -3.1276
99 127 -3.1276
100 127 -3.1276
101 127 -3.1276
102 127 -3.1276
103 127 -3.1276
104 127 -3.1276
105 127 -3.1276
106 127 -3.1276
107 127 -3.1276
108 127 -3.1276
109 127 -3.1276
110 127 -3.1276
111 127 -3.1276
112 127 -3.1276
113 127 -3.1276
114 127 -3.1276
115 127 -3.1276
116 127 -3.1276
117 127 -3.1276
118 127 -3.1276
119 127 -3.1276
0 128 -3.1276
1 128 -3.1276
2 128 -3.1276
3 128 -3.1276
4 128 -3.1276
5 128 -3.1276
6 128 -3.1276
7 128 -3.1276
8 128 -3.1276
9 128 -3.1276
10 128 -3.1276
11 128 -3.1276
12 128 -3.1276
13 128 -3.1276
14 128 -3.1276
15 128 -3.1276
16 128 -3.1276
17 128 -3.1276
18 128 -3.1276
19 128 -3.1276
20 128 -3.1276
21 128 -3.1276
22 128 -3.1276
23 128 -3.1276
24 128 -3.1276
25 128 -3.1276
26 128 -3.1276
27 128 1.7397
28 128 2.91606
